ply
format ascii 1.0
element vertex 2226
property float x
property float y
property float z
end_header
1.8 1.205 108.268
2.104 1.379 125.755
1.841 1.18 109.308
2.149 1.347 126.795
2.163 1.297 126.095
2.178 1.276 126.185
2.213 1.267 127.475
2.199 1.23 125.965
2.22 1.213 126.455
2.224 1.186 126.035
2.232 1.162 125.775
2.246 1.141 125.945
2.279 1.129 127.165
2.283 1.075 126.165
2.294 1.052 126.165
2.314 1.033 126.675
2.327 1.011 126.845
2.33 0.985 126.455
2.347 0.965 126.865
2.351 0.939 126.575
2.377 0.922 127.475
2.414 0.909 128.974
2.399 0.849 127.235
2.45 0.839 129.494
2.427 0.804 127.844
2.538 0.813 133.253
2.447 0.757 128.074
2.462 0.735 128.464
2.481 0.713 129.054
2.598 0.719 134.783
2.525 0.672 130.624
2.495 0.611 128.404
2.604 0.61 133.713
2.562 0.573 131.244
2.508 0.534 128.184
2.551 0.517 130.144
2.555 0.491 130.074
2.545 0.463 129.344
2.595 0.445 131.624
2.575 0.416 130.384
2.592 0.365 130.874
2.58 0.337 130.074
2.576 0.311 129.714
2.614 0.289 131.484
2.628 0.264 132.034
2.64 0.238 132.543
2.592 0.208 130.004
4.0 0.442 134.09
3.863 0.466 129.652
3.844 0.503 129.172
3.873 0.546 130.331
3.855 0.583 129.922
3.818 0.616 128.872
3.795 0.651 128.322
3.802 0.692 128.772
3.815 0.734 129.452
3.84 0.818 130.821
3.774 0.844 128.852
3.804 0.891 130.191
3.8 0.93 130.361
3.74 0.955 128.632
3.78 1.006 130.351
3.765 1.042 130.161
3.806 1.094 131.961
3.852 1.149 133.95
3.634 1.164 127.153
3.773 1.25 132.45
3.781 1.295 133.19
3.731 1.32 131.881
3.586 1.309 127.193
3.738 1.407 133.08
3.542 1.374 126.613
3.54 1.414 127.013
3.544 1.457 127.683
3.502 1.522 127.253
3.551 1.586 129.582
3.556 1.631 130.361
3.501 1.648 128.942
3.47 1.676 128.432
3.477 1.722 129.292
3.456 1.755 129.162
3.413 1.777 128.222
3.402 1.815 128.482
3.33 1.862 127.133
3.333 1.908 127.982
2.876 1.685 111.06
3.281 1.967 127.463
2.806 1.721 109.691
2.841 1.781 111.74
2.824 1.81 111.78
2.746 1.799 109.411
2.749 1.841 110.25
2.731 1.909 111.05
2.606 1.86 106.692
2.731 1.991 112.639
2.678 1.994 111.25
2.545 1.934 106.512
2.553 1.982 107.702
2.551 2.021 108.461
2.601 2.103 111.45
2.488 2.054 107.512
2.454 2.109 107.831
2.432 2.133 107.811
2.451 2.15 108.661
2.443 2.1 107.362
2.486 2.094 108.311
2.439 2.013 105.373
2.551 2.063 109.341
2.492 1.974 105.932
2.536 1.968 106.962
2.556 1.903 106.172
2.606 1.9 107.482
2.734 1.952 111.95
2.67 1.866 108.561
2.733 1.87 110.35
2.732 1.829 109.551
3.154 2.066 125.643
2.848 1.826 112.729
3.211 2.013 126.283
3.308 1.983 128.532
3.255 1.907 125.723
3.275 1.875 125.743
3.297 1.844 125.893
3.329 1.819 126.403
3.348 1.786 126.453
3.379 1.759 126.963
3.367 1.711 125.863
3.407 1.688 126.693
3.438 1.618 126.613
3.452 1.583 126.543
3.458 1.544 126.203
3.478 1.512 126.373
3.541 1.497 128.102
3.532 1.452 127.253
3.537 1.413 126.933
3.54 1.373 126.543
3.585 1.349 127.633
3.598 1.273 127.173
3.638 1.246 128.142
3.663 1.214 128.602
3.669 1.175 128.392
3.706 1.147 129.282
3.772 1.126 131.181
3.722 1.07 129.042
3.77 1.043 130.351
3.723 0.991 128.392
3.794 0.928 130.161
3.805 0.891 130.231
3.803 0.851 129.872
3.84 0.818 130.821
3.839 0.778 130.531
3.845 0.739 130.481
3.845 0.7 130.241
3.904 0.67 131.981
3.848 0.621 129.892
3.888 0.548 130.841
3.895 0.509 130.891
3.913 0.472 131.351
3.869 0.427 129.722
3.967 0.398 132.85
5.339 0.428 133.833
5.177 0.467 129.876
5.157 0.57 129.636
5.185 0.625 130.506
5.176 0.677 130.426
5.128 0.723 129.386
5.139 0.777 129.876
5.107 0.824 129.247
5.076 0.871 128.687
5.067 0.922 128.687
5.136 0.988 130.695
5.083 1.083 129.856
5.152 1.152 131.914
4.98 1.166 127.788
4.982 1.219 128.147
4.965 1.268 128.047
5.143 1.368 132.974
4.917 1.361 127.468
4.934 1.419 128.277
4.881 1.457 127.278
4.897 1.569 128.497
4.875 1.615 128.317
4.791 1.641 126.529
4.773 1.688 126.499
4.766 1.74 126.769
4.746 1.786 126.699
4.755 1.844 127.448
4.732 1.89 127.328
4.678 1.923 126.379
4.657 2.024 126.888
4.628 2.067 126.639
4.607 2.113 126.649
4.563 2.148 126.009
4.569 2.207 126.789
4.561 2.26 127.178
4.488 2.28 125.789
4.492 2.338 126.529
4.448 2.372 125.959
4.411 2.467 126.289
3.844 2.201 110.681
3.776 2.212 109.342
3.78 2.266 110.122
3.843 2.356 112.64
3.686 2.311 108.693
3.677 2.357 109.133
3.618 2.37 108.063
3.653 2.446 109.832
3.669 2.564 111.84
3.487 2.49 107.064
3.447 2.513 106.595
3.392 2.525 105.655
3.39 2.577 106.415
3.349 2.599 105.925
3.28 2.599 104.556
3.413 2.76 109.682
3.395 2.802 109.982
3.193 2.745 105.216
3.139 2.753 104.316
3.138 2.752 104.297
3.283 2.822 108.183
3.262 2.747 106.555
3.385 2.794 109.682
3.308 2.675 106.305
3.364 2.665 107.234
3.435 2.666 108.643
3.435 2.557 106.994
3.45 2.515 106.675
3.49 2.491 107.134
3.615 2.526 110.192
3.557 2.434 107.694
4.176 2.796 125.579
3.697 2.422 110.432
3.721 2.385 110.432
4.297 2.694 126.719
4.311 2.584 125.599
4.355 2.551 126.109
4.366 2.5 125.719
4.382 2.451 125.46
4.408 2.408 125.5
4.462 2.38 126.359
4.493 2.339 126.569
4.566 2.319 127.958
4.527 2.243 126.229
4.629 2.179 127.838
4.586 2.103 126.059
4.688 2.093 128.277
4.698 2.042 127.998
4.672 1.975 126.749
4.756 1.955 128.497
5.089 2.033 136.93
4.786 1.856 128.277
4.762 1.792 127.128
4.814 1.703 127.588
4.818 1.65 127.258
4.853 1.608 127.758
4.874 1.561 127.878
12.335 3.816 322.622
4.909 1.465 127.998
4.926 1.417 128.077
5.031 1.392 130.426
5.014 1.334 129.636
5.004 1.225 128.727
5.021 1.176 128.857
5.016 1.122 128.437
5.102 1.088 130.356
5.136 1.041 130.945
5.092 0.979 129.556
5.124 0.932 130.146
5.134 0.881 130.166
5.13 0.828 129.846
5.133 0.723 129.526
5.313 0.695 133.873
5.183 0.625 130.436
5.245 0.579 131.844
5.288 0.531 132.804
5.296 0.478 132.864
5.288 0.424 132.544
5.224 0.366 130.845
5.244 0.315 131.275
6.473 0.584 129.887
6.491 0.717 130.497
6.457 0.779 129.967
6.424 0.84 129.468
6.452 0.909 130.207
6.379 0.964 128.919
6.362 1.027 128.769
6.388 1.097 129.518
6.313 1.149 128.22
6.335 1.218 128.919
6.329 1.349 129.308
6.311 1.411 129.228
6.245 1.462 128.17
6.354 1.555 130.716
6.186 1.58 127.58
6.211 1.652 128.429
6.189 1.713 128.329
6.149 1.768 127.85
6.101 1.82 127.221
6.078 1.947 127.54
6.267 2.077 131.925
6.008 2.058 126.911
6.024 2.131 127.68
6.186 2.258 131.605
5.911 2.225 126.222
5.903 2.29 126.522
5.934 2.37 127.68
5.826 2.395 125.882
5.819 2.529 126.781
5.748 2.567 125.793
5.755 2.639 126.522
5.707 2.687 126.052
5.801 2.802 128.749
5.701 2.825 127.151
5.629 2.859 126.172
5.634 2.933 126.931
5.632 3.004 127.56
5.533 3.095 126.681
5.499 3.149 126.632
5.466 3.202 126.592
4.798 2.876 111.79
4.766 2.922 111.72
4.662 2.923 109.952
5.289 3.39 125.543
5.301 3.473 126.642
4.454 2.982 107.116
4.396 3.072 107.166
4.514 3.223 110.841
4.291 3.129 106.117
4.273 3.181 106.457
4.308 3.275 108.135
4.218 3.274 106.696
4.268 3.381 108.814
4.264 3.448 109.583
4.044 3.338 104.789
4.041 3.473 106.477
3.987 3.497 105.977
4.765 4.179 105.5
4.846 4.165 106.368
4.872 4.103 106.029
5.017 4.141 108.285
4.982 4.029 106.668
4.943 3.916 104.971
5.028 3.903 105.959
5.13 3.82 106.468
5.234 3.816 107.826
5.278 3.768 107.945
5.402 3.775 109.702
5.377 3.679 108.454
5.462 3.657 109.433
5.629 3.688 112.028
5.582 3.578 110.381
6.401 4.013 125.763
6.55 3.926 127.131
6.485 3.8 125.114
6.592 3.774 126.452
6.572 3.676 125.354
6.61 3.611 125.384
6.671 3.558 125.863
6.717 3.497 126.053
6.754 3.431 126.113
6.788 3.363 126.113
6.849 3.224 126.013
6.902 3.165 126.402
7.03 3.14 128.169
7.0 3.042 127.051
6.986 2.953 126.252
7.016 2.884 126.272
7.068 2.823 126.692
7.101 2.754 126.791
7.115 2.678 126.562
7.19 2.543 126.961
7.298 2.5 128.409
7.228 2.395 126.761
7.307 2.341 127.73
7.361 2.277 128.269
7.412 2.212 128.768
7.363 2.117 127.54
7.435 2.058 128.428
7.596 2.021 130.854
7.48 1.831 128.199
7.609 1.782 130.085
7.555 1.689 128.868
7.571 1.614 128.868
7.62 1.545 129.427
7.662 1.474 129.886
7.941 1.445 134.368
7.646 1.312 129.137
7.825 1.263 131.942
7.763 0.857 130.016
7.748 0.934 129.916
7.713 1.008 129.497
7.69 1.084 129.277
7.709 1.165 129.786
7.683 1.24 129.546
7.613 1.307 128.578
7.704 1.402 130.355
7.652 1.472 129.716
7.647 1.63 130.155
7.544 1.687 128.678
7.469 1.749 127.7
7.521 1.841 128.898
7.627 1.947 131.034
7.428 1.976 127.949
7.399 2.048 127.8
7.377 2.121 127.78
7.344 2.192 127.58
7.549 2.418 131.952
7.475 2.477 131.084
7.234 2.478 127.291
7.44 2.632 131.363
7.148 2.609 126.662
7.096 2.671 126.222
7.088 2.749 126.562
7.03 2.808 126.013
7.175 2.949 129.137
6.957 3.024 126.282
7.104 3.172 129.507
6.929 3.178 126.901
6.891 3.244 126.781
6.831 3.3 126.282
6.797 3.368 126.272
6.8 3.454 126.961
6.718 3.498 126.083
6.715 3.582 126.692
6.614 3.7 126.163
6.622 3.791 127.021
5.728 3.356 110.521
5.624 3.371 109.143
6.452 3.956 125.983
5.573 3.494 109.503
5.559 3.563 109.912
5.6 3.669 111.439
6.357 4.256 127.35
5.357 3.744 108.794
5.439 3.883 111.249
5.357 3.906 110.371
5.212 3.88 108.165
5.168 3.929 108.075
5.186 4.025 109.283
4.96 3.929 105.33
5.02 4.059 107.466
4.952 4.087 106.887
4.964 4.267 108.974
4.825 4.232 106.837
5.446 4.776 103.306
6.812 5.855 128.115
5.684 4.787 105.99
5.76 4.754 106.518
5.904 4.774 108.294
5.836 4.623 106.189
6.008 4.663 108.464
5.988 4.458 106.469
6.351 4.63 112.095
6.078 4.339 106.518
6.229 4.353 108.384
6.348 4.343 109.701
6.373 4.267 109.381
6.519 4.271 111.157
6.364 4.079 107.805
6.59 4.131 110.928
7.568 4.537 125.851
7.719 4.523 127.597
7.689 4.403 126.37
7.845 4.388 128.205
7.739 4.228 125.781
7.78 4.15 125.761
7.806 4.064 125.522
7.883 4.004 126.1
7.946 3.937 126.479
8.047 3.788 126.849
8.08 3.706 126.779
8.145 3.637 127.218
8.139 3.538 126.579
8.286 3.503 128.305
8.239 3.387 127.048
8.853 3.536 135.956
8.346 3.237 127.677
8.318 3.131 126.759
8.454 2.991 127.896
8.429 2.887 127.068
8.46 2.804 127.118
8.496 2.721 127.238
8.615 2.665 128.614
8.589 2.563 127.836
8.71 2.504 129.253
8.616 2.384 127.497
8.686 2.311 128.185
8.88 2.173 130.38
8.878 2.079 130.041
8.813 1.971 128.804
8.805 1.877 128.405
8.924 1.809 129.871
8.939 1.719 129.831
8.966 1.631 129.971
8.955 1.537 129.582
9.037 1.458 130.549
9.186 1.294 132.305
9.021 1.179 129.761
9.068 1.093 130.27
9.024 0.997 129.492
9.25 0.928 132.585
9.344 0.749 133.702
9.171 0.828 131.338
9.023 0.997 129.472
9.04 1.09 129.871
8.962 1.172 128.914
9.094 1.282 130.988
8.99 1.359 129.682
8.965 1.447 129.512
8.882 1.525 128.524
8.864 1.613 128.495
8.809 1.694 127.946
8.861 1.889 129.223
8.741 1.955 127.746
8.893 2.082 130.26
8.96 2.193 131.567
8.657 2.21 127.427
8.905 2.369 131.427
8.635 2.39 127.786
8.607 2.475 127.726
8.843 2.639 131.617
8.478 2.716 126.968
8.474 2.808 127.327
8.446 2.893 127.337
8.378 2.964 126.749
8.368 3.055 127.048
8.36 3.147 127.407
8.322 3.228 127.307
8.174 3.265 125.542
8.155 3.352 125.751
8.141 3.539 126.609
8.079 3.608 126.2
8.055 3.694 126.39
7.987 3.76 125.901
7.969 3.849 126.22
8.06 3.993 128.285
7.959 4.043 127.327
7.939 4.133 127.647
7.888 4.207 127.497
7.691 4.302 125.681
6.826 3.908 112.185
7.651 4.483 126.479
6.585 3.947 109.501
7.555 4.632 126.39
7.5 4.702 126.26
6.51 4.173 110.279
6.556 4.295 111.786
6.412 4.293 110.06
6.424 4.49 111.776
6.323 4.514 110.808
6.055 4.414 106.868
6.08 4.527 108.115
5.957 4.528 106.718
5.954 4.621 107.486
5.882 4.66 107.027
5.833 4.717 106.987
5.73 4.729 105.97
5.61 4.822 105.511
5.538 4.857 105.062
6.456 5.663 107.116
6.328 5.439 104.076
6.6 5.559 107.635
6.529 5.389 105.591
6.667 5.391 106.947
6.615 5.24 105.262
6.648 5.159 104.963
6.84 5.093 106.369
7.006 5.108 108.143
7.035 5.023 107.824
7.061 4.935 107.455
8.286 5.669 125.228
7.167 4.799 107.585
7.422 4.863 110.675
7.327 4.696 108.552
8.505 5.332 125.208
8.646 5.183 125.737
8.674 5.082 125.398
8.788 5.032 126.315
8.879 4.966 126.893
8.935 4.881 126.993
9.011 4.806 127.381
9.04 4.706 127.122
9.07 4.607 126.893
9.079 4.498 126.384
9.129 4.298 125.856
9.201 4.22 126.265
9.213 4.114 125.856
9.334 4.057 126.953
9.374 3.963 126.953
9.448 3.884 127.411
9.5 3.794 127.601
9.44 3.661 126.295
9.57 3.602 127.551
9.63 3.406 127.411
9.797 3.356 129.176
9.704 3.216 127.521
9.711 3.111 127.192
9.807 3.034 128.039
9.851 2.94 128.229
9.816 2.823 127.401
9.812 2.716 126.993
10.025 2.667 129.395
10.041 2.457 128.936
10.045 2.352 128.687
10.107 2.26 129.176
10.132 2.16 129.215
10.159 2.059 129.295
10.146 1.951 128.876
10.174 1.851 128.986
10.197 1.75 129.046
10.218 1.649 129.106
10.393 1.465 130.92
10.382 1.357 130.601
10.397 1.254 130.621
10.688 1.18 134.12
10.397 1.043 130.332
10.552 0.952 132.156
10.361 0.831 129.654
10.532 0.844 131.787
10.52 0.949 131.757
10.344 1.142 129.804
10.326 1.245 129.734
10.449 1.366 131.448
10.388 1.464 130.85
10.269 1.552 129.544
10.24 1.652 129.375
10.113 1.736 127.989
10.168 1.85 128.906
10.266 1.974 130.402
10.054 2.143 128.229
10.021 2.241 128.079
10.234 2.396 131.109
10.334 2.529 132.704
10.267 2.622 132.176
10.177 2.707 131.359
9.893 2.738 128.039
9.834 2.828 127.63
10.163 3.033 132.296
9.687 3.103 126.873
9.753 3.232 128.159
9.672 3.313 127.521
9.634 3.408 127.461
9.557 3.489 126.903
9.457 3.56 126.046
9.44 3.661 126.295
9.401 3.755 126.275
9.352 3.844 126.125
9.334 4.057 126.953
9.201 4.109 125.687
9.202 4.22 126.275
9.161 4.313 126.295
9.132 4.411 126.494
9.087 4.502 126.494
9.03 4.587 126.335
8.952 4.66 125.886
8.862 4.727 125.278
8.757 4.898 125.158
7.654 4.382 110.007
8.774 5.141 126.843
7.553 4.527 109.838
7.389 4.53 108.113
7.543 4.729 111.044
7.348 4.71 108.871
7.349 4.815 109.588
7.156 4.791 107.415
7.08 4.948 107.744
6.942 4.956 106.399
6.974 5.085 107.655
6.836 5.089 106.299
6.752 5.133 105.791
6.695 5.196 105.711
6.64 5.26 105.661
6.66 5.386 106.837
6.602 5.449 106.777
6.408 5.508 105.402
6.402 5.615 106.219
7.143 6.265 105.282
7.234 6.218 105.7
7.422 6.252 107.533
7.431 6.133 106.766
7.467 6.039 106.418
7.53 5.965 106.447
7.723 5.994 108.33
7.722 5.75 106.686
7.912 5.769 108.499
7.84 5.597 106.746
7.911 5.529 106.955
8.222 5.625 110.391
8.094 5.42 107.941
9.525 6.241 126.187
9.492 6.084 124.932
9.594 6.015 125.48
9.691 5.809 125.201
9.787 5.735 125.699
10.017 5.735 127.9
9.986 5.586 126.795
9.943 5.432 125.55
10.068 5.37 126.446
10.135 5.276 126.615
10.229 5.196 127.133
10.212 5.059 126.287
10.301 4.849 126.157
10.348 4.746 126.157
10.546 4.709 127.98
10.528 4.576 127.203
10.468 4.426 125.938
10.518 4.324 126.018
10.559 4.218 125.998
10.65 4.131 126.576
10.704 4.029 126.735
10.748 3.802 126.337
10.831 3.71 126.864
10.905 3.614 127.303
10.919 3.498 127.054
10.994 3.401 127.522
11.115 3.317 128.538
11.076 3.185 127.711
11.183 3.095 128.577
11.12 2.958 127.512
11.406 2.791 130.121
11.481 2.688 130.659
11.477 2.567 130.32
11.39 2.428 129.046
11.351 2.301 128.338
11.491 2.21 129.663
11.522 2.097 129.773
11.466 1.968 128.916
11.535 1.862 129.474
11.613 1.636 129.952
11.555 1.511 129.135
11.612 1.4 129.603
11.555 1.276 128.817
11.652 1.169 129.763
11.944 1.078 132.89
12.063 1.332 134.483
11.576 1.396 129.205
11.638 1.522 130.061
11.609 1.636 129.912
11.555 1.746 129.494
11.484 1.853 128.896
11.413 1.959 128.319
11.47 2.087 129.185
11.354 2.184 128.119
11.345 2.418 128.538
11.507 2.573 130.659
11.349 2.657 129.155
11.471 2.807 130.858
11.162 2.85 127.661
11.095 2.952 127.223
11.166 3.09 128.388
11.324 3.256 130.569
11.475 3.424 132.691
11.239 3.6 130.779
10.853 3.597 126.695
11.378 3.897 133.268
10.804 3.822 126.984
11.092 4.049 130.848
11.015 4.146 130.42
10.696 4.148 127.123
10.543 4.211 125.799
10.589 4.353 126.864
10.664 4.635 128.846
10.579 4.724 128.388
10.317 4.732 125.779
10.498 4.942 128.577
10.24 4.947 126.018
10.189 5.048 125.998
10.227 5.195 127.103
10.102 5.259 126.207
10.068 5.37 126.446
10.013 5.601 127.133
9.89 5.663 126.287
8.689 5.091 111.597
8.595 5.152 111.049
8.608 5.278 111.885
8.351 5.236 109.226
8.498 5.447 111.845
8.457 5.541 112.035
8.142 5.452 108.579
8.034 5.615 108.619
7.936 5.666 108.051
7.655 5.581 104.973
7.72 5.748 106.647
7.656 5.82 106.567
7.925 6.151 111.168
7.557 5.987 106.836
7.614 6.157 108.499
7.306 6.03 104.973
7.181 6.172 104.924
7.027 6.163 103.569
7.9 6.929 104.734
8.035 6.906 105.6
8.113 6.833 105.719
8.224 6.788 106.276
8.455 6.837 108.376
8.301 6.576 105.55
8.546 6.633 107.819
8.572 6.382 106.515
8.615 6.281 106.256
8.958 6.395 109.699
8.891 6.214 108.107
8.957 6.128 108.167
10.428 6.982 125.072
9.164 6.004 109.192
9.259 5.935 109.61
10.729 6.726 126.206
10.766 6.453 125.102
10.908 6.391 125.997
10.979 6.286 126.087
11.166 6.246 127.52
11.013 6.016 125.072
11.182 5.964 126.306
11.262 5.863 126.545
11.21 5.694 125.311
11.345 5.621 126.186
11.449 5.39 126.117
11.536 5.291 126.495
11.667 5.21 127.351
11.733 5.1 127.51
11.789 4.984 127.569
11.723 4.819 126.326
11.855 4.735 127.231
11.826 4.587 126.425
11.889 4.475 126.614
12.029 4.255 127.171
12.033 4.121 126.764
12.037 3.989 126.385
12.214 3.913 127.828
31.002 9.59 323.436
12.302 3.671 127.948
12.431 3.574 128.913
12.382 3.427 128.047
12.571 3.344 129.649
12.456 3.048 127.808
12.453 2.916 127.47
12.585 2.814 128.525
12.822 2.733 130.664
12.653 2.565 128.674
12.713 2.445 129.032
12.755 2.321 129.211
12.821 2.201 129.649
12.727 2.054 128.485
12.938 1.823 130.226
12.922 1.689 129.888
13.163 1.587 132.137
12.967 1.432 130.027
12.945 1.299 129.669
13.098 1.182 131.072
14.439 1.012 131.053
14.322 1.148 130.089
14.351 1.295 130.467
14.116 1.559 128.588
14.139 1.705 128.946
14.116 1.845 128.896
14.037 1.978 128.35
14.111 2.133 129.214
13.925 2.247 127.713
13.939 2.393 128.051
14.145 2.574 130.178
13.871 2.668 127.892
14.046 2.994 130.029
13.813 3.089 128.151
13.908 3.257 129.334
13.634 3.336 127.087
13.636 3.482 127.425
13.601 3.618 127.425
13.547 3.749 127.266
13.502 3.883 127.207
13.451 4.014 127.097
13.824 4.428 131.431
13.678 4.533 130.467
13.203 4.522 126.362
13.618 4.817 130.785
13.081 4.775 126.083
13.461 5.067 130.228
13.01 5.046 126.342
13.048 5.212 127.216
12.845 5.28 125.745
12.737 5.536 125.745
12.792 5.713 126.849
12.601 5.779 125.517
12.824 6.038 128.34
12.589 6.081 126.59
12.607 6.246 127.385
12.532 6.366 127.266
12.294 6.401 125.497
12.256 6.537 125.765
12.152 6.798 126.073
12.004 6.873 125.238
11.93 6.99 125.189
11.932 7.152 125.954
10.389 6.37 110.339
10.162 6.371 108.6
10.255 6.573 110.289
10.214 6.692 110.558
10.14 6.789 110.488
10.078 7.044 111.323
9.654 6.892 107.397
9.729 7.094 109.017
9.732 7.246 109.852
9.237 7.022 105.051
9.349 7.256 107.148
9.489 7.518 109.613
9.151 7.4 106.552
8.993 7.422 105.578
8.878 7.631 105.995
8.547 7.496 102.934
8.691 7.622 104.664
8.98 7.718 107.208
9.355 7.88 110.747
9.148 7.55 107.397
9.192 7.434 107.039
9.238 7.319 106.711
9.32 7.233 106.82
9.548 7.109 107.775
9.663 7.046 108.282
9.58 6.839 106.572
9.776 6.833 107.993
9.89 6.766 108.5
10.155 6.8 110.657
11.556 7.571 125.089
11.667 7.478 125.477
11.798 7.397 126.083
11.837 7.095 124.95
11.955 7.005 125.457
11.95 6.842 124.682
12.157 6.8 126.123
12.313 6.727 127.038
12.211 6.513 125.308
12.296 6.402 125.517
12.372 6.285 125.646
12.388 6.138 125.179
12.586 5.925 125.954
12.682 5.816 126.322
12.868 5.747 127.604
12.724 5.53 125.616
12.83 5.425 126.123
12.891 5.299 126.193
12.901 5.153 125.785
13.221 5.128 128.399
13.072 4.92 126.461
13.301 4.705 127.743
13.233 4.533 126.65
13.283 4.402 126.7
13.385 4.288 127.256
13.475 4.168 127.713
13.57 4.049 128.22
33.985 9.772 320.173
13.817 3.824 129.801
13.813 3.674 129.413
13.982 3.422 130.328
13.984 3.274 130.039
13.875 3.103 128.727
14.281 3.044 132.206
13.959 2.83 128.956
14.179 2.727 130.735
13.975 2.543 128.608
14.05 2.412 129.075
14.282 2.305 130.984
14.235 2.006 130.159
14.299 1.869 130.566
14.14 1.705 128.956
14.207 1.569 129.413
14.28 1.433 129.94
14.357 1.296 130.516
14.47 1.16 131.431
14.391 1.009 130.616
15.665 1.414 130.445
15.501 1.712 129.333
15.373 1.854 128.42
15.441 2.019 129.145
15.406 2.171 129.025
15.442 2.334 129.522
15.35 2.477 128.946
15.252 2.618 128.34
15.279 2.78 128.797
15.126 2.909 127.745
15.064 3.211 127.735
14.963 3.346 127.159
15.38 3.601 131.001
15.628 3.824 133.433
15.388 3.929 131.716
15.192 4.041 130.376
14.825 4.103 127.566
14.677 4.22 126.653
15.228 4.544 131.795
14.666 4.698 127.715
14.504 4.807 126.722
14.59 4.998 127.904
14.346 5.075 126.196
14.414 5.262 127.258
14.218 5.352 125.987
14.094 5.467 125.372
14.031 5.604 125.302
13.964 5.74 125.213
13.932 6.055 125.987
13.913 6.213 126.365
13.696 6.281 124.965
13.688 6.444 125.471
13.644 6.591 125.66
13.573 6.725 125.62
13.492 6.853 125.501
13.369 6.96 124.995
13.369 7.131 125.66
13.255 7.414 125.958
13.309 7.62 127.189
11.526 6.753 110.788
12.967 7.773 125.382
11.419 7.001 111.085
11.257 7.058 110.192
12.802 8.206 126.107
10.79 7.069 106.975
11.146 7.463 111.244
10.736 7.503 108.623
12.421 8.867 126.563
10.822 7.891 111.075
10.363 7.715 107.144
10.155 7.72 105.794
10.027 7.782 105.267
10.426 8.26 110.311
9.859 7.972 105.148
10.009 8.261 107.63
9.643 8.289 105.456
9.401 8.245 103.699
9.477 8.312 104.543
9.6 8.251 104.98
9.8 8.254 106.26
9.781 8.073 105.178
10.067 8.141 107.372
9.954 7.886 105.317
10.167 7.891 106.737
10.736 7.993 111.006
10.536 7.682 108.137
10.742 7.669 109.457
10.831 7.57 109.586
12.416 8.494 124.756
12.588 8.429 125.64
12.639 8.281 125.312
12.733 8.162 125.431
12.865 8.066 125.928
13.042 7.818 126.107
12.948 7.587 124.458
13.129 7.517 125.471
13.218 7.393 125.6
13.295 7.263 125.64
13.374 7.134 125.709
13.593 7.076 127.089
13.489 6.852 125.471
13.505 6.691 124.995
13.677 6.439 125.372
13.735 6.299 125.312
13.759 6.144 124.965
13.977 6.075 126.394
13.946 5.896 125.57
14.061 5.78 126.077
14.129 5.643 126.176
14.239 5.523 126.663
14.258 5.367 126.345
14.414 5.099 126.802
14.58 4.994 127.814
36.63 12.139 320.032
14.594 4.675 127.089
14.706 4.549 127.665
14.902 4.447 128.976
15.108 4.344 130.376
14.999 4.151 129.065
14.916 3.968 128.003
14.939 3.656 127.546
15.037 3.521 128.082
15.091 3.375 128.241
15.124 3.223 128.241
15.266 3.095 129.184
15.146 2.913 127.913
15.449 2.811 130.227
15.378 2.64 129.403
15.462 2.495 129.889
15.521 2.187 129.988
15.446 2.019 129.184
15.528 1.872 129.71
15.491 1.711 129.254
15.574 1.563 129.81
15.603 1.408 129.929
15.571 1.248 129.552
15.662 0.941 130.127
17.066 1.54 131.065
16.785 1.854 129.171
16.756 2.02 129.091
16.786 2.195 129.488
16.572 2.335 128.011
16.663 2.518 128.903
16.781 2.708 130.014
16.519 2.836 128.199
16.547 3.011 128.645
16.435 3.161 128.011
16.421 3.5 128.427
16.255 3.635 127.406
16.261 3.807 127.743
16.15 3.952 127.178
16.213 4.14 127.991
16.113 4.286 127.535
16.0 4.428 126.979
15.954 4.588 126.979
15.884 4.74 126.791
15.824 5.069 127.098
15.662 5.19 126.206
15.753 5.396 127.366
15.535 5.495 126.037
15.502 5.659 126.226
15.337 5.773 125.343
15.413 5.978 126.454
15.3 6.111 126.018
15.23 6.26 125.948
15.04 6.537 125.433
14.907 6.657 124.877
14.887 6.828 125.274
14.804 6.969 125.155
14.867 7.181 126.285
14.7 7.283 125.482
14.559 7.396 124.907
14.429 7.512 124.431
14.426 7.694 125.056
12.524 7.006 109.766
14.174 8.115 124.927
14.179 8.308 125.7
14.184 8.502 126.494
14.091 8.639 126.424
12.232 7.669 110.43
11.782 7.552 107.039
11.729 7.685 107.257
11.602 7.768 106.801
12.038 8.413 112.334
11.446 8.172 107.575
11.448 8.347 108.368
11.444 8.521 109.131
11.179 8.498 107.406
10.813 8.392 104.699
11.159 8.841 108.893
10.849 8.773 106.722
11.136 9.191 110.44
10.398 8.938 104.878
10.218 8.962 103.955
10.554 9.256 107.376
10.393 8.933 104.828
10.71 9.021 107.109
10.592 8.742 105.046
10.943 8.849 107.644
10.73 8.501 104.709
11.052 8.578 107.009
11.136 8.291 106.196
11.318 8.252 107.138
11.673 8.334 109.706
11.545 8.069 107.733
11.859 8.113 109.905
12.036 8.059 110.797
13.778 9.027 125.988
13.875 8.893 126.057
13.884 8.705 125.343
14.028 8.409 125.095
14.071 8.244 124.738
14.258 8.164 125.671
14.634 8.186 128.259
14.347 7.838 125.046
14.529 7.749 125.948
14.573 7.587 125.671
14.602 7.417 125.274
14.729 7.297 125.73
14.962 7.044 126.494
15.965 7.322 134.347
15.049 6.721 126.067
15.034 6.534 125.383
15.154 6.407 125.849
15.222 6.257 125.889
15.399 6.15 126.831
15.566 6.037 127.703
15.548 5.852 127.069
15.559 5.504 126.236
15.73 5.388 127.178
15.788 5.232 127.217
15.965 5.114 128.229
39.995 12.372 320.225
15.919 4.75 127.069
40.357 11.605 321.197
16.203 4.484 128.596
16.143 4.294 127.773
16.453 4.026 129.557
16.335 3.825 128.328
16.386 3.664 128.427
16.532 3.524 129.29
16.59 3.363 129.478
16.575 3.188 129.101
16.888 3.073 131.293
16.601 2.85 128.834
17.076 2.756 132.304
17.198 2.424 132.849
17.114 2.237 132.017
16.803 2.026 129.458
17.057 1.884 131.263
23.89 1.915 170.07
18.24 1.646 129.956
18.059 1.995 128.926
18.276 2.204 130.629
18.187 2.378 130.154
18.262 2.573 130.867
18.054 2.729 129.57
18.009 2.906 129.451
17.72 3.042 127.579
17.747 3.229 128.005
17.625 3.39 127.362
17.798 3.794 129.134
17.442 3.9 126.827
17.496 4.097 127.51
17.881 4.376 130.629
17.331 4.425 126.926
17.4 4.629 127.768
17.82 4.932 131.204
17.174 4.938 126.807
17.097 5.102 126.609
17.089 5.474 127.332
16.911 5.604 126.421
16.841 5.768 126.322
16.725 5.916 125.886
16.746 6.113 126.5
16.572 6.238 125.649
16.601 6.439 126.352
16.359 6.534 125.005
16.39 6.737 125.748
16.202 7.042 125.361
16.048 7.167 124.718
16.182 7.422 126.332
16.101 7.58 126.282
15.847 7.655 124.886
15.77 7.813 124.886
15.778 8.015 125.579
15.889 8.272 127.114
15.632 8.338 125.718
13.437 7.516 109.251
15.516 8.884 126.876
15.41 9.029 126.738
15.309 9.177 126.659
13.358 8.19 111.191
13.119 8.225 109.874
13.238 8.485 111.578
12.88 8.439 109.27
12.886 8.628 110.043
12.86 8.988 111.34
14.29 10.201 124.589
12.226 8.914 107.369
11.934 8.885 105.577
11.933 9.072 106.369
12.066 9.364 108.379
11.445 9.068 103.616
11.816 9.555 107.835
11.435 9.438 105.21
11.239 9.66 105.161
11.138 9.769 105.131
11.045 9.687 104.25
11.278 9.693 105.527
11.469 9.66 106.409
11.68 9.64 107.468
11.447 9.257 104.468
11.791 9.341 106.745
11.801 9.159 106.003
12.275 9.139 108.597
12.379 9.026 108.716
12.326 8.8 107.468
12.57 8.785 108.825
14.522 9.935 124.856
12.661 8.477 108.122
14.831 9.717 125.817
13.198 8.459 111.241
15.092 9.462 126.401
15.048 9.02 124.5
15.146 8.874 124.569
15.189 8.697 124.203
15.455 8.645 125.658
15.601 8.523 126.154
15.472 8.252 124.431
15.574 8.108 124.599
15.727 7.989 125.173
15.909 7.882 125.985
15.994 7.529 125.441
16.015 7.345 125.025
16.033 7.16 124.599
16.237 7.057 125.629
16.31 6.896 125.658
16.324 6.71 125.243
16.467 6.577 125.827
16.53 6.412 125.817
16.731 6.298 126.857
16.854 5.962 126.857
16.823 5.762 126.183
16.931 5.611 126.569
17.073 5.469 127.213
17.192 5.318 127.698
17.195 5.131 127.332
17.262 4.964 127.461
17.732 4.908 130.56
17.396 4.628 127.738
17.298 4.233 126.371
17.709 4.146 129.065
17.585 3.932 127.867
17.617 3.755 127.817
17.743 3.597 128.471
17.658 3.396 127.599
17.71 3.223 127.738
17.858 3.066 128.58
18.091 2.919 130.035
17.97 2.532 128.778
18.131 2.37 129.758
18.34 2.211 131.085
18.182 2.008 129.807
18.519 1.858 132.075
18.306 1.652 130.431
18.569 1.489 132.194
18.234 1.278 129.708
19.547 1.174 129.569
19.46 1.364 129.074
19.438 1.558 129.025
19.417 1.752 128.995
19.408 2.143 129.193
19.307 2.328 128.669
19.472 2.546 129.934
19.302 2.72 128.975
19.213 2.904 128.57
19.214 3.101 128.778
19.044 3.269 127.848
18.988 3.455 127.7
18.945 3.644 127.65
18.858 4.02 127.581
18.931 4.233 128.352
19.061 4.463 129.529
18.496 4.526 125.989
18.619 4.754 127.146
18.449 4.908 126.316
18.439 5.103 126.592
18.321 5.268 126.138
18.309 5.464 126.424
18.811 6.026 130.696
18.679 6.19 130.201
18.609 6.374 130.152
17.902 6.333 125.643
17.874 6.525 125.9
17.801 6.7 125.851
17.838 6.919 126.592
17.69 7.066 126.039
17.603 7.236 125.93
17.517 7.613 126.375
17.44 7.788 126.375
17.21 7.893 125.277
17.009 8.007 124.387
16.967 8.196 124.674
17.171 8.507 126.79
16.949 8.609 125.782
16.799 8.746 125.317
16.85 8.987 126.355
16.54 9.252 125.396
16.39 9.384 124.961
13.995 8.2 107.321
14.017 8.402 108.132
16.08 9.859 124.803
14.046 8.806 109.694
15.928 10.209 125.178
13.687 8.968 108.27
13.643 9.135 108.636
13.455 9.404 108.617
12.931 9.232 105.126
12.783 9.32 104.671
13.196 9.825 108.854
12.778 9.714 106.204
12.569 9.755 105.274
12.818 10.155 108.201
12.307 9.952 104.721
12.299 10.151 105.512
12.473 10.721 108.824
12.067 10.584 106.204
12.82 11.244 105.663
12.823 11.021 104.774
13.678 11.521 110.816
12.907 10.652 103.698
13.076 10.574 104.202
13.459 10.663 106.403
13.636 10.583 106.956
14.291 10.64 110.402
13.798 10.06 105.811
14.3 10.209 108.871
14.132 9.877 106.838
14.242 9.743 106.927
16.76 11.222 124.983
16.758 10.979 124.144
14.613 9.367 107.558
16.951 10.628 123.976
17.363 10.408 125.437
17.53 10.271 125.901
17.407 9.967 124.292
17.641 9.867 125.25
17.572 9.6 124.075
17.739 9.462 124.578
17.726 9.229 123.838
17.953 9.119 124.776
18.043 8.939 124.776
18.211 8.573 124.726
18.281 8.384 124.628
18.382 8.209 124.746
18.533 8.055 125.22
18.627 7.876 125.319
18.71 7.691 125.348
18.799 7.509 125.437
18.949 7.35 125.941
19.039 7.166 126.059
19.122 6.764 125.684
19.271 6.601 126.227
19.469 6.452 127.096
19.497 6.245 126.859
19.558 6.05 126.859
19.636 5.86 126.977
19.975 5.744 128.794
20.759 5.745 133.473
19.921 5.3 127.737
19.878 4.864 126.809
20.09 4.704 127.856
20.075 4.489 127.471
20.269 4.32 128.419
20.116 4.078 127.184
20.232 3.891 127.668
20.286 3.691 127.767
20.33 3.49 127.816
20.371 3.288 127.866
20.513 2.891 128.369
20.628 2.697 128.912
20.727 2.499 129.366
20.705 2.287 129.08
20.584 2.065 128.191
20.693 1.867 128.744
20.799 1.667 129.297
21.293 1.493 132.269
20.799 1.667 129.297
20.635 1.862 128.389
20.618 2.277 128.537
20.592 2.483 128.527
20.902 2.733 130.62
20.715 2.919 129.633
20.479 3.095 128.34
20.352 3.284 127.747
20.372 3.497 128.083
20.256 3.686 127.579
20.065 3.859 126.612
19.97 4.256 126.523
20.257 4.53 128.626
20.047 4.694 127.579
19.855 4.859 126.661
20.064 5.123 128.32
19.735 5.25 126.543
19.663 5.442 126.424
19.53 5.616 125.921
19.521 5.825 126.237
19.448 6.23 126.543
19.303 6.397 126.01
19.286 6.606 126.326
19.835 7.016 130.373
19.74 7.206 130.215
19.85 7.472 131.43
19.252 7.467 127.955
18.861 7.533 125.852
18.645 7.664 124.914
18.494 8.038 124.953
18.407 8.22 124.914
18.296 8.391 124.726
18.253 8.593 125.013
18.566 8.969 127.767
18.122 8.978 125.319
18.01 9.148 125.171
17.791 9.262 124.292
17.729 9.456 124.509
17.7 9.901 125.674
17.588 10.07 125.585
17.486 10.246 125.585
17.197 10.309 124.243
15.019 9.208 109.168
15.152 9.499 110.816
14.655 9.393 107.864
14.878 9.747 110.214
14.372 9.623 107.173
14.119 9.868 106.739
14.567 10.399 110.905
14.185 10.343 108.783
13.689 10.192 105.752
13.515 10.274 105.199
13.617 10.568 106.808
13.13 10.402 103.797
13.175 10.654 104.992
13.375 11.039 107.46
12.675 10.895 103.57
12.82 11.244 105.663
13.227 11.601 102.491
13.841 11.897 106.325
13.804 11.627 105.142
13.708 11.314 103.546
14.169 11.458 106.157
14.351 11.37 106.66
14.197 11.018 104.689
14.356 10.688 104.265
15.188 11.074 109.498
14.887 10.628 106.561
15.012 10.492 106.699
15.771 10.79 111.322
15.841 10.606 111.056
15.411 10.097 107.33
15.874 10.175 109.843
18.125 11.364 124.627
18.245 10.936 123.918
18.306 10.726 123.602
18.608 10.654 124.913
18.737 10.481 125.071
18.918 10.335 125.583
18.764 10.008 123.888
18.883 9.83 124.016
19.14 9.722 125.061
19.225 9.525 124.992
19.323 9.097 124.42
19.41 8.902 124.401
19.639 8.77 125.297
19.617 8.526 124.607
19.841 8.389 125.495
20.007 8.224 126.017
19.971 7.977 125.278
20.046 7.775 125.258
20.292 7.638 126.313
20.376 7.208 125.908
20.605 7.058 126.884
20.542 6.807 126.066
20.617 6.604 126.115
21.415 6.625 130.59
21.28 6.35 129.368
21.142 6.079 128.156
20.92 5.79 126.451
21.508 5.722 129.654
21.411 5.24 128.412
21.322 4.992 127.574
21.46 4.799 128.106
21.519 4.587 128.175
21.438 4.346 127.426
21.57 4.148 127.958
21.763 3.96 128.865
21.813 3.744 128.934
21.706 3.503 128.087
21.648 3.051 127.357
21.979 2.874 129.131
21.792 2.628 127.87
21.829 2.411 127.939
21.938 2.201 128.441
22.196 2.003 129.831
22.014 1.765 128.658
22.264 1.561 130.018
22.282 1.339 130.038
22.534 0.902 131.378
22.116 0.664 128.895
22.131 0.221 128.934
22.47 0.899 131.004
22.23 1.112 129.664
22.196 1.333 129.535
22.173 1.555 129.486
21.932 1.758 128.175
21.979 1.983 128.56
21.97 2.427 128.767
21.867 2.637 128.313
21.967 2.872 129.062
21.784 3.07 128.156
21.593 3.263 127.219
21.763 3.512 128.422
21.483 3.688 126.983
21.517 3.915 127.407
21.384 4.112 126.855
21.238 4.527 126.5
21.584 4.827 128.845
20.999 4.917 125.642
21.003 5.14 125.968
20.944 5.348 125.928
21.029 5.594 126.766
20.877 5.778 126.194
20.88 6.004 126.569
20.793 6.205 126.411
20.641 6.612 126.263
21.229 7.035 130.284
20.485 7.017 126.145
20.331 7.192 125.632
20.106 7.339 124.686
20.022 7.536 124.627
19.991 7.754 124.913
19.913 7.953 124.913
19.799 8.139 124.706
19.636 8.534 124.726
19.613 8.758 125.13
19.419 8.906 124.46
19.45 9.157 125.238
19.212 9.28 124.292
19.181 9.503 124.706
19.073 9.689 124.627
19.082 9.934 125.327
18.83 10.043 124.322
18.73 10.477 125.021
18.502 10.594 124.203
18.448 10.809 124.558
16.432 9.85 111.608
18.271 11.202 124.854
18.029 11.304 123.967
18.163 11.642 125.682
15.616 10.231 108.759
15.149 10.143 106.207
14.868 10.392 105.674
15.058 10.75 107.784
14.651 10.682 105.625
14.477 10.778 105.142
14.353 10.911 105.034
14.23 11.044 104.935
13.942 11.046 103.624
13.767 11.133 103.141
13.702 11.309 103.496
13.737 11.808 105.527
13.287 11.653 102.954
14.526 12.74 106.176
14.415 12.39 104.455
14.716 12.395 105.734
14.691 12.125 104.681
14.632 11.833 103.412
15.066 11.936 105.625
15.265 11.847 106.186
15.57 11.593 106.678
15.761 11.491 107.19
15.751 11.245 106.354
15.82 11.057 106.068
15.936 10.902 106.108
16.257 10.885 107.514
16.628 10.894 109.246
19.034 12.2 124.24
19.121 11.988 124.023
19.242 11.534 123.285
19.503 11.427 124.22
19.624 11.236 124.269
19.892 11.127 125.253
20.016 10.935 125.342
19.856 10.591 123.669
19.982 10.403 123.797
20.172 10.247 124.338
20.344 10.08 124.771
20.526 9.663 124.673
20.688 9.488 125.076
20.718 9.252 124.692
20.834 9.055 124.84
21.14 8.938 126.129
21.309 8.759 126.611
21.181 8.46 125.342
21.427 8.311 126.296
21.306 8.02 125.106
21.781 7.705 126.965
21.857 7.487 126.965
21.659 7.178 125.391
21.747 6.966 125.489
21.909 6.777 126.03
22.36 6.673 128.234
21.999 6.326 125.794
22.501 6.227 128.303
22.236 5.915 126.444
22.494 5.505 127.26
22.412 5.248 126.493
22.79 5.096 128.333
22.852 4.871 128.401
23.042 4.671 129.198
22.741 4.373 127.26
22.871 4.162 127.752
23.072 3.961 128.647
22.977 3.708 127.9
23.817 3.356 132.179
23.101 3.02 128.028
23.288 2.808 128.903
23.332 2.577 129.002
23.284 2.336 128.598
24.016 2.167 132.514
23.676 1.898 130.527
23.584 1.417 129.838
23.303 1.634 128.372
23.196 1.86 127.88
23.267 2.1 128.382
23.018 2.542 127.26
22.977 2.771 127.181
23.186 3.031 128.5
23.278 3.28 129.189
23.087 3.489 128.313
22.787 3.677 126.847
22.732 3.902 126.749
22.769 4.143 127.181
22.628 4.352 126.631
22.528 4.802 126.581
22.374 5.003 125.991
22.368 5.237 126.247
22.539 5.516 127.516
22.462 5.735 127.398
22.642 6.023 128.756
22.023 6.095 125.578
22.25 6.398 127.231
22.091 6.592 126.69
21.784 6.978 125.706
21.622 7.165 125.174
21.669 7.422 125.873
21.528 7.615 125.489
21.483 7.842 125.676
21.415 8.061 125.745
21.155 8.205 124.692
21.271 8.496 125.873
21.089 8.669 125.302
20.846 9.06 124.909
20.542 9.173 123.63
20.693 9.49 125.106
20.592 9.694 125.076
20.394 9.852 124.466
20.357 10.086 124.85
20.503 10.415 126.375
19.996 10.41 123.886
19.926 10.628 124.102
19.754 11.05 124.387
19.64 11.245 124.368
19.593 11.48 124.791
16.796 10.068 107.613
16.624 10.192 107.16
19.193 12.033 124.486
19.077 12.228 124.525
16.395 10.741 107.711
16.669 11.161 110.24
15.861 11.086 106.344
15.871 11.33 107.16
15.933 11.617 108.361
15.191 11.311 104.081
15.247 11.591 105.252
15.484 12.017 107.711
15.353 12.164 107.642
14.748 11.926 104.228
14.61 12.058 104.101
14.419 12.393 104.484
14.807 12.987 108.233
14.89 13.06 102.983
15.576 13.388 106.793
15.024 12.655 102.138
15.745 12.995 106.155
15.56 12.583 104.053
15.829 12.541 105.006
16.098 12.494 105.958
16.221 12.077 105.153
16.756 12.217 107.824
16.814 12.004 107.421
16.892 11.806 107.156
16.811 11.501 105.909
17.543 11.746 109.778
17.129 11.222 106.479
17.862 11.449 110.318
20.16 12.639 123.723
20.433 12.248 123.87
20.431 11.971 123.124
20.772 11.893 124.459
20.842 11.658 124.174
21.039 11.494 124.656
21.113 11.261 124.42
21.224 11.05 124.42
21.206 10.772 123.674
21.605 10.704 125.372
21.574 10.157 123.988
21.745 9.973 124.39
21.845 9.756 124.4
21.892 9.515 124.116
21.996 9.3 124.174
56.442 23.201 317.305
22.278 8.898 124.734
22.385 8.682 124.842
22.395 8.429 124.42
22.758 8.05 125.52
23.071 7.903 126.806
22.845 7.57 125.137
23.975 7.68 130.901
23.262 7.196 126.61
23.197 6.922 125.873
23.908 6.875 129.35
23.285 6.444 125.628
23.761 6.321 127.847
23.808 5.826 127.445
23.879 5.591 127.523
23.875 5.339 127.209
23.85 5.083 126.796
24.009 4.867 127.376
24.075 4.63 127.474
23.962 4.36 126.639
24.112 4.139 127.209
24.216 3.908 127.543
24.325 3.428 127.729
24.539 3.208 128.682
24.653 2.973 129.114
24.694 2.727 129.183
24.658 2.474 128.859
24.526 2.213 128.044
24.806 1.989 129.399
24.848 1.742 129.517
25.267 1.518 131.618
24.757 1.736 129.045
24.486 1.963 127.729
24.52 2.213 128.014
24.46 2.701 127.955
24.238 2.923 126.944
24.198 3.164 126.895
24.39 3.437 128.073
24.272 3.668 127.641
24.279 3.918 127.877
23.896 4.102 126.07
23.852 4.34 126.06
23.871 4.591 126.394
23.85 5.083 126.796
23.929 5.351 127.494
23.927 5.602 127.778
23.536 5.76 125.991
23.296 5.948 125.019
23.319 6.203 125.471
24.037 6.652 129.683
23.877 6.866 129.183
23.778 7.096 129.026
22.984 7.362 125.49
24.067 7.976 131.834
22.805 7.811 125.343
22.705 8.031 125.225
22.584 8.244 125.009
22.419 8.439 124.557
22.818 8.85 127.258
22.362 8.932 125.206
22.102 9.085 124.253
21.852 9.497 123.89
22.04 9.843 125.51
21.608 9.91 123.605
21.567 10.153 123.949
21.446 10.36 123.841
21.548 10.676 125.039
21.354 10.847 124.538
21.224 11.05 124.42
21.016 11.21 123.85
20.771 11.619 123.752
20.788 11.903 124.557
20.799 12.186 125.343
18.199 10.909 110.328
17.6 10.79 107.343
20.323 12.742 124.724
20.137 12.907 124.371
17.364 11.377 107.942
17.448 11.682 109.179
16.932 11.834 107.412
16.474 11.761 105.251
16.284 11.873 104.79
16.221 12.077 105.153
16.153 12.28 105.507
15.885 12.328 104.554
16.451 13.033 109.13
15.748 12.735 105.31
15.604 12.879 105.202
15.149 13.021 103.867
14.948 13.111 103.385
15.663 13.738 102.78
15.996 13.749 104.054
16.016 13.49 103.299
16.433 13.563 105.112
16.305 13.186 103.446
16.985 13.456 106.896
17.007 13.199 106.2
17.205 12.81 105.818
17.138 12.496 104.632
17.353 12.388 105.181
17.482 12.219 105.22
17.681 12.096 105.681
18.098 12.118 107.445
18.162 11.899 107.111
18.499 11.857 108.395
18.351 11.505 106.847
21.506 12.891 123.694
21.852 12.803 124.939
21.625 12.382 122.93
22.001 12.307 124.361
22.137 12.094 124.439
22.106 11.791 123.596
22.174 11.544 123.322
22.692 11.527 125.556
22.412 11.104 123.39
22.853 10.759 124.606
22.8 10.457 123.743
23.067 10.301 124.625
58.852 25.579 316.562
23.216 9.815 124.341
23.25 9.557 124.008
23.612 9.431 125.429
23.537 9.129 124.537
60.138 22.636 316.993
23.931 8.465 125.223
24.011 8.224 125.204
24.112 7.991 125.311
24.229 7.761 125.507
24.463 7.567 126.321
24.32 7.257 125.204
24.487 7.041 125.694
24.64 6.819 126.125
24.917 6.628 127.193
24.784 6.065 125.87
24.955 5.843 126.438
25.129 5.619 127.026
25.184 5.368 127.026
25.174 5.103 126.713
25.144 4.836 126.311
25.13 4.573 126.007
25.337 4.349 126.821
25.413 4.101 126.987
26.096 3.677 130.006
25.542 3.339 127.075
25.58 3.084 127.105
25.633 2.831 127.222
25.757 2.584 127.703
25.972 2.344 128.644
26.105 2.093 129.192
26.134 1.832 129.241
26.064 1.566 128.81
26.205 1.049 129.379
31.567 0.316 155.733
27.564 2.21 129.736
27.167 2.452 127.975
27.073 2.99 127.79
27.035 3.26 127.76
26.801 3.504 126.811
27.01 3.806 127.975
26.705 4.036 126.714
26.533 4.282 126.098
26.919 4.621 128.142
26.598 4.84 126.841
26.512 5.099 126.665
26.405 5.628 126.665
26.506 5.927 127.428
26.77 6.268 128.992
25.88 6.333 125.002
25.979 6.633 125.794
25.734 6.846 124.934
26.435 7.316 128.689
26.449 7.606 129.12
25.537 7.62 125.031
26.85 8.601 132.279
25.498 8.45 126.029
26.211 8.978 129.99
24.971 8.833 124.269
24.848 9.07 124.102
24.752 9.317 124.083
25.11 9.739 126.362
24.772 9.894 125.149
24.556 10.094 124.562
24.106 10.477 123.32
24.071 10.749 123.682
23.937 10.978 123.555
23.883 11.244 123.848
23.672 11.435 123.339
23.625 11.705 123.701
23.643 12.01 124.415
23.581 12.276 124.728
23.348 12.454 124.151
23.076 12.908 124.053
22.946 13.138 124.053
22.884 13.408 124.435
22.732 13.626 124.347
19.659 12.053 108.19
19.066 11.953 105.578
19.321 12.384 107.671
18.945 12.412 106.263
18.661 12.494 105.363
18.247 12.753 104.444
18.768 13.399 108.19
17.974 13.105 104.366
17.757 13.221 103.867
17.607 13.385 103.769
17.534 13.608 104.131
17.377 13.767 104.014
17.316 14.003 104.483
17.36 14.328 105.608
17.134 14.727 105.999
17.783 15.597 110.977
16.572 14.535 103.417
16.647 14.308 102.987
17.149 14.445 105.197
16.754 13.828 101.921
17.25 13.949 104.082
17.606 13.948 105.383
18.696 14.51 111.036
17.762 13.225 103.896
17.995 13.12 104.483
18.559 13.25 106.987
18.424 12.877 105.461
18.795 12.858 106.84
18.775 12.571 106.009
18.835 12.34 105.647
19.644 12.591 109.471
22.485 14.097 124.513
22.557 13.521 123.388
22.866 13.397 124.337
22.696 12.995 122.704
23.471 13.129 126.176
23.08 12.609 123.388
23.352 12.456 124.171
23.444 12.205 124.005
23.502 11.938 123.672
23.521 11.653 123.154
23.813 11.211 123.486
23.92 10.97 123.467
24.134 10.777 124.005
24.343 10.58 124.533
24.454 10.339 124.562
24.643 10.129 125.002
24.766 9.892 125.119
24.621 9.549 123.897
24.799 9.334 124.318
25.104 8.88 124.934
64.284 21.303 317.733
25.413 8.14 125.198
26.64 8.241 130.831
26.4 7.878 129.257
26.483 7.615 129.286
26.47 7.326 128.856
26.332 7.005 127.838
26.637 6.518 128.66
26.362 6.172 127.027
26.63 5.955 128.024
26.694 5.69 128.054
26.688 5.41 127.76
26.473 5.091 126.479
26.808 4.878 127.838
26.779 4.597 127.477
26.838 4.331 127.545
27.027 3.809 128.054
27.353 3.576 129.423
27.207 3.281 128.572
27.419 3.028 129.423
27.923 2.802 131.663
27.706 2.5 130.518
27.649 2.217 130.137
28.799 2.019 129.101
28.471 2.283 127.725
28.262 2.55 126.896
28.057 3.099 126.232
28.103 3.389 126.584
28.163 3.682 127.013
28.187 3.972 127.296
28.047 4.239 126.847
27.967 4.513 126.681
27.716 4.758 125.754
27.551 5.013 125.227
27.782 5.343 126.515
27.354 5.83 125.071
27.744 6.204 127.13
27.376 6.41 125.735
27.099 6.632 124.759
27.031 6.902 124.759
26.942 7.167 124.671
28.053 7.764 130.165
26.751 7.692 124.476
26.652 7.953 124.378
26.448 8.472 124.193
26.627 8.824 125.442
26.162 8.961 123.666
26.413 9.343 125.286
26.098 9.527 124.242
26.09 9.82 124.661
25.779 9.999 123.646
25.57 10.213 123.129
25.446 10.46 123.031
25.242 10.971 123.08
25.135 11.225 123.1
25.041 11.485 123.197
24.848 11.698 122.817
24.691 11.927 122.622
24.562 12.169 122.582
24.603 12.497 123.402
24.378 12.691 122.905
24.371 12.999 123.519
24.002 13.426 122.983
23.779 13.615 122.534
21.258 12.455 110.179
20.473 12.272 106.744
20.422 12.521 107.124
20.679 12.965 109.144
20.787 13.324 110.413
20.065 13.146 107.271
19.544 13.086 105.182
19.735 13.793 107.671
20.104 14.352 110.462
18.889 13.772 104.538
18.896 14.069 105.348
18.733 14.241 105.231
19.026 14.766 107.7
18.128 14.362 103.426
18.125 14.657 104.236
17.666 14.58 102.43
17.503 15.044 103.211
17.775 15.59 105.729
21.074 18.484 125.354
17.927 15.408 105.709
17.881 15.061 104.548
18.049 14.897 104.655
18.503 14.963 106.412
18.294 14.494 104.372
18.459 14.326 104.489
19.05 14.183 106.207
19.138 13.954 105.914
19.571 13.972 107.534
19.361 13.532 105.631
19.744 13.508 106.978
19.65 13.156 105.748
22.969 15.049 122.797
23.129 14.825 122.856
23.143 14.51 122.153
23.616 14.156 123.129
23.608 13.832 122.358
23.925 13.698 123.285
24.093 13.477 123.451
24.246 13.246 123.549
24.111 12.861 122.202
24.446 12.727 123.246
24.599 12.495 123.383
24.809 12.291 123.812
25.265 11.894 124.876
24.95 11.443 122.748
25.155 11.234 123.197
25.48 11.074 124.242
25.505 10.783 123.832
25.622 10.532 123.88
25.933 10.358 124.876
25.768 9.995 123.597
26.18 9.854 125.091
26.096 9.231 123.783
26.203 8.975 123.861
26.387 8.744 124.31
26.704 8.554 125.393
26.602 8.229 124.525
26.794 7.996 125.042
26.797 7.706 124.69
26.989 7.469 125.227
27.262 7.252 126.154
68.69 16.81 316.24
27.493 6.437 126.271
27.396 6.126 125.539
27.544 5.871 125.94
27.546 5.584 125.686
27.812 5.349 126.652
28.053 5.105 127.511
27.832 4.778 126.281
28.365 4.578 128.487
28.181 3.971 127.267
28.148 3.68 126.945
29.035 3.501 130.78
28.519 3.15 128.311
28.376 2.847 127.53
28.616 2.582 128.487
28.56 2.29 128.126
28.701 2.012 128.662
29.001 1.742 129.921
30.267 2.122 129.585
29.731 2.384 127.385
29.601 2.671 126.937
29.605 3.27 127.21
29.453 3.551 126.703
29.299 3.83 126.197
29.139 4.106 125.681
29.196 4.413 126.109
29.101 4.696 125.895
29.035 4.984 125.817
29.098 5.295 126.314
28.99 5.575 126.08
28.868 6.153 126.061
29.468 6.59 128.962
28.286 6.623 124.074
28.201 6.901 123.996
28.309 7.229 124.785
28.134 7.484 124.337
28.131 7.785 124.659
27.95 8.037 124.211
28.009 8.358 124.834
27.814 8.91 124.736
27.702 9.18 124.639
27.425 9.394 123.811
27.397 9.691 124.113
26.988 9.851 122.701
27.153 10.22 123.909
26.924 10.443 123.334
27.004 10.786 124.191
26.853 11.038 123.996
26.349 11.452 122.701
26.233 11.715 122.701
26.16 11.997 122.916
26.303 12.383 124.162
25.878 12.5 122.74
25.743 12.755 122.701
25.694 13.052 123.081
25.635 13.346 123.432
25.281 13.484 122.37
21.866 12.231 107.006
24.922 14.27 122.653
22.032 12.909 109.06
24.855 14.899 123.763
21.745 13.332 108.934
21.094 13.225 106.334
24.456 15.676 124.065
20.881 13.681 106.616
20.326 13.61 104.474
20.131 14.07 104.893
20.21 14.428 106.052
19.891 14.503 105.136
19.42 14.459 103.403
20.111 15.288 107.892
19.408 15.062 104.922
18.934 15.001 103.17
19.003 15.367 104.377
18.984 15.668 105.127
17.987 15.461 101.3
18.272 16.026 103.803
18.269 16.023 103.783
18.356 15.777 103.374
18.601 15.668 103.871
18.84 15.549 104.328
18.947 15.321 104.065
19.034 15.08 103.715
19.202 14.903 103.812
19.818 14.756 105.526
19.751 14.401 104.397
20.462 14.608 107.376
