ply
format ascii 1.0
element vertex 258
property float x
property float y
property float z
end_header
1.238 0.012 2.114
1.228 0.012 2.097
1.238 0.025 2.114
1.228 0.025 2.097
1.238 0.037 2.114
1.203 0.036 2.053
1.445 0.058 2.468
1.202 0.048 2.053
1.202 0.06 2.053
1.201 0.072 2.053
1.201 0.072 2.053
1.215 0.085 2.079
1.2 0.084 2.053
1.199 0.096 2.053
1.184 0.095 2.028
1.405 0.127 2.407
1.405 0.127 2.407
1.197 0.12 2.053
1.196 0.132 2.053
1.271 0.14 2.183
1.38 0.166 2.373
1.435 0.173 2.468
1.865 0.244 3.21
1.985 0.26 3.417
2.032 0.286 3.503
2.032 0.286 3.503
2.014 0.304 3.477
1.757 0.284 3.037
1.757 0.284 3.037
1.754 0.301 3.037
1.734 0.298 3.003
1.701 0.31 2.951
1.666 0.303 2.89
1.847 0.355 3.21
1.663 0.32 2.89
1.843 0.374 3.21
1.632 0.348 2.847
1.632 0.348 2.847
1.801 0.403 3.149
1.638 0.366 2.865
1.624 0.38 2.847
1.831 0.429 3.21
1.62 0.397 2.847
1.63 0.399 2.865
1.616 0.413 2.847
1.593 0.424 2.813
1.544 0.411 2.726
1.515 0.419 2.683
1.715 0.475 3.037
1.535 0.441 2.726
1.535 0.441 2.726
1.497 0.447 2.666
1.507 0.45 2.683
1.502 0.465 2.683
1.497 0.48 2.683
1.425 0.456 2.554
1.238 0.41 2.226
1.209 0.401 2.174
1.234 0.423 2.226
1.138 0.39 2.053
2.95 1.044 5.341
2.74 0.969 4.961
1.453 0.53 2.64
2.697 1.015 4.918
2.697 1.015 4.918
2.917 1.132 5.341
1.659 0.643 3.037
2.676 1.069 4.918
2.704 1.08 4.97
1.314 0.54 2.424
1.478 0.607 2.726
1.755 0.742 3.253
1.692 0.736 3.149
1.692 0.736 3.149
1.713 0.765 3.201
1.814 0.81 3.391
1.76 0.807 3.305
1.921 0.881 3.607
1.72 0.81 3.244
1.711 0.805 3.227
1.662 0.803 3.149
1.631 0.808 3.106
1.64 0.812 3.123
1.632 0.829 3.123
1.907 0.968 3.65
2.166 1.128 4.167
2.121 1.104 4.081
2.114 1.128 4.09
2.253 1.201 4.357
2.125 1.161 4.133
2.113 1.182 4.133
2.069 1.157 4.047
2.215 1.269 4.357
2.194 1.256 4.314
2.137 1.252 4.228
2.137 1.252 4.228
2.129 1.276 4.236
1.917 1.149 3.814
2.086 1.279 4.176
2.073 1.3 4.176
1.872 1.173 3.77
1.839 1.179 3.727
1.996 1.279 4.047
1.979 1.297 4.038
1.962 1.285 4.003
1.92 1.285 3.943
1.916 1.283 3.934
1.865 1.276 3.857
1.86 1.3 3.874
1.852 1.295 3.857
1.819 1.298 3.814
1.798 1.284 3.77
1.765 1.287 3.727
1.605 1.17 3.391
1.731 1.289 3.684
1.675 1.247 3.563
1.622 1.233 3.477
1.57 1.218 3.391
1.581 1.227 3.417
1.557 1.234 3.391
1.53 1.212 3.33
1.517 1.227 3.33
1.517 1.227 3.33
1.532 1.265 3.391
1.532 1.265 3.391
1.52 1.28 3.391
1.48 1.272 3.33
1.468 1.262 3.305
1.589 1.393 3.607
1.429 1.253 3.244
1.589 1.393 3.607
1.595 1.371 3.589
1.468 1.262 3.305
1.473 1.241 3.287
1.493 1.232 3.305
1.493 1.232 3.305
1.506 1.217 3.305
1.506 1.217 3.305
1.51 1.196 3.287
1.518 1.202 3.305
1.53 1.187 3.305
1.53 1.187 3.305
1.541 1.172 3.305
1.545 1.15 3.287
1.553 1.156 3.305
1.577 1.15 3.33
1.564 1.141 3.305
1.74 1.242 3.65
1.74 1.242 3.65
1.753 1.225 3.65
1.773 1.24 3.693
1.765 1.207 3.65
1.756 1.176 3.607
1.756 1.176 3.607
1.59 1.042 3.244
1.573 1.031 3.21
1.579 1.012 3.201
1.511 0.968 3.063
1.491 0.934 3.003
1.396 0.875 2.813
1.34 0.822 2.683
1.296 0.777 2.58
1.474 0.884 2.934
1.335 0.782 2.64
1.357 0.795 2.683
1.575 0.902 3.097
1.386 0.794 2.726
1.363 0.763 2.666
1.35 0.755 2.64
1.327 0.725 2.58
1.32 0.704 2.554
1.32 0.704 2.554
1.157 0.602 2.226
1.188 0.619 2.286
1.163 0.591 2.226
1.194 0.607 2.286
1.386 0.687 2.64
1.386 0.687 2.64
1.206 0.583 2.286
1.212 0.571 2.286
1.23 0.579 2.321
1.282 0.588 2.407
1.291 0.592 2.424
1.297 0.579 2.424
1.288 0.575 2.407
1.275 0.554 2.373
1.465 0.637 2.726
1.28 0.541 2.373
1.314 0.54 2.424
1.286 0.529 2.373
1.31 0.523 2.407
1.291 0.516 2.373
1.296 0.503 2.373
1.291 0.501 2.364
1.273 0.479 2.321
1.301 0.49 2.373
1.277 0.466 2.321
1.287 0.455 2.33
1.482 0.524 2.683
1.511 0.518 2.726
1.315 0.45 2.373
1.32 0.437 2.373
1.315 0.436 2.364
1.555 0.498 2.787
1.343 0.43 2.407
1.328 0.411 2.373
1.55 0.463 2.761
1.579 0.471 2.813
1.613 0.464 2.865
1.613 0.464 2.865
1.618 0.448 2.865
1.618 0.448 2.865
1.612 0.429 2.847
1.593 0.424 2.813
1.597 0.408 2.813
1.576 0.386 2.77
1.552 0.38 2.726
1.541 0.361 2.701
1.521 0.356 2.666
1.357 0.303 2.373
1.357 0.303 2.373
1.335 0.285 2.33
1.33 0.283 2.321
1.382 0.28 2.407
1.638 0.315 2.847
1.638 0.315 2.847
1.651 0.3 2.865
1.666 0.303 2.89
1.644 0.282 2.847
1.654 0.284 2.865
1.657 0.267 2.865
1.672 0.27 2.89
1.675 0.253 2.89
1.652 0.233 2.847
1.632 0.23 2.813
1.609 0.21 2.77
1.83 0.239 3.149
1.606 0.194 2.761
1.636 0.197 2.813
1.613 0.178 2.77
1.608 0.178 2.761
1.615 0.162 2.77
1.566 0.141 2.683
1.556 0.14 2.666
1.618 0.13 2.77
1.613 0.129 2.761
1.619 0.114 2.77
1.644 0.115 2.813
1.645 0.099 2.813
1.645 0.099 2.813
1.646 0.082 2.813
1.642 0.066 2.804
1.647 0.066 2.813
1.844 0.055 3.149
1.844 0.055 3.149
1.845 0.037 3.149
1.855 0.037 3.167
1.845 0.018 3.149
