ply
format ascii 1.0
element vertex 1719
property float x
property float y
property float z
end_header
1438.516 100.861 13056.607
1444.274 86.761 13100.341
1446.488 57.89 13107.299
1453.14 43.607 13162.961
1449.003 28.984 13122.208
1449.221 14.493 13122.208
1575.932 15.76 13070.326
1575.457 31.513 13068.34
1569.798 47.108 13024.656
1582.884 63.349 13137.837
1577.509 78.941 13099.117
1579.867 94.906 13125.923
1567.852 109.929 13034.585
1565.72 125.526 13026.642
1569.752 141.66 13071.318
1558.99 172.184 13007.779
1556.358 187.665 13000.829
1571.378 205.438 13142.801
1571.26 221.425 13159.678
1569.323 237.18 13162.657
1554.463 250.858 13058.412
1556.478 267.18 13097.132
1548.075 281.703 13049.477
1553.998 298.865 13123.937
1557.311 331.929 13205.348
1542.932 345.03 13112.024
1547.914 362.434 13184.499
1523.165 372.744 13004.8
1518.897 387.838 13000.829
1519.918 404.331 13043.52
1513.953 418.999 13027.635
1509.917 434.183 13029.621
1503.779 448.747 13014.728
1483.445 475.188 12918.426
1488.506 493.275 13004.8
1472.853 504.489 12911.476
1476.425 522.266 12987.923
1270.735 463.854 11218.738
1237.127 465.658 10962.593
1264.999 490.646 11252.493
1240.018 495.279 11073.788
1228.914 505.151 11019.183
1204.842 523.662 10895.082
1231.244 549.84 11182.996
1201.854 551.195 10965.571
1190.975 560.688 10916.924
1189.081 574.392 10951.672
1173.409 581.364 10860.334
1175.542 597.135 10934.794
1173.547 610.961 10972.521
1148.26 612.468 10792.823
1160.126 648.926 11024.147
1338.916 766.612 12795.318
1120.267 656.384 10768.002
1139.523 683.064 11018.19
1104.467 677.155 10744.175
1096.626 687.529 10734.247
1089.898 698.59 10736.233
1089.266 713.653 10799.772
1097.991 735.166 10958.622
1044.213 729.82 10565.47
1035.986 739.6 10556.534
1028.054 749.57 10551.57
1019.931 759.384 10545.613
998.659 759.185 10403.642
994.043 771.482 10435.412
977.365 774.321 10341.095
993.123 803.1 10592.275
987.905 815.354 10623.052
955.06 820.901 10444.347
957.963 840.199 10567.455
949.953 833.174 10479.095
942.713 810.289 10309.325
966.884 814.395 10484.059
984.581 812.61 10587.311
980.929 793.24 10462.217
985.528 780.789 10427.469
1010.31 784.106 10606.175
998.039 743.084 10319.253
1018.381 742.517 10452.289
1038.324 741.269 10580.362
1055.889 737.981 10683.614
1058.869 724.411 10639.93
1071.631 717.516 10695.527
1075.147 704.403 10659.786
1086.774 696.588 10705.456
1090.439 683.65 10673.686
1113.853 667.677 10769.988
1112.521 651.845 10693.542
1110.361 635.75 10611.139
1126.066 629.875 10700.491
1133.884 619.444 10715.384
1135.902 605.877 10676.664
1169.724 608.971 10936.78
1168.177 593.394 10866.291
1189.285 589.23 11007.269
1173.862 552.631 10760.06
1202.616 551.545 10972.521
1185.553 529.436 10768.002
1219.773 530.151 11030.104
1202.52 508.417 10827.571
1245.522 511.978 11168.104
1227.9 490.439 10965.571
1237.431 479.954 11007.269
1243.961 468.23 11023.154
1273.165 450.365 11199.874
1239.665 424.616 10867.283
1273.395 421.989 11125.414
1249.163 400.141 10878.204
1510.424 467.229 13112.024
1520.757 453.813 13161.664
1526.369 438.914 13171.592
1532.413 424.108 13186.484
1538.544 409.286 13203.362
1546.189 378.378 13201.376
1555.723 364.262 13251.017
1540.245 344.429 13089.189
1544.198 329.134 13094.153
1555.507 315.317 13162.657
1547.179 297.553 13066.354
1552.08 282.431 13083.232
1566.507 268.902 13181.52
1583.182 255.493 13299.664
1566.163 220.707 13116.988
1562.831 204.32 13071.318
1566.936 188.94 13089.189
1558.99 172.184 13007.779
1556.345 156.155 12972.038
1564.387 141.176 13026.642
1603.19 128.529 13338.384
1568.211 109.954 13037.563
1569.232 94.267 13037.563
1576.784 63.105 13087.203
1615.388 48.476 13402.917
1569.353 31.391 13017.707
1575.693 15.757 13068.34
1750.622 17.507 13391.043
1734.676 34.698 13271.064
1716.62 51.514 13136.212
1708.377 68.372 13077.71
1707.349 85.439 13075.727
1705.503 102.453 13068.786
1725.343 120.972 13229.419
1724.176 138.229 13230.41
1687.203 152.26 12957.731
1688.201 186.455 12991.444
1697.192 204.646 13075.727
1693.775 221.44 13065.811
1684.416 237.371 13011.275
1705.543 257.768 13193.723
1683.299 271.65 13042.014
1685.226 289.281 13078.701
1687.733 307.116 13121.339
1693.362 325.667 13189.756
1663.942 354.657 13013.258
1686.753 377.191 13220.495
1670.653 391.172 13124.313
1655.577 405.147 13037.056
1649.433 421.17 13021.191
1651.153 439.242 13068.786
1650.551 456.803 13099.524
1634.812 470.097 13011.275
1629.16 486.162 13004.334
1621.951 519.556 13027.14
1611.629 534.077 12986.486
1604.736 549.662 12974.587
1589.138 562.137 12893.279
1365.948 498.61 11122.35
1375.695 517.815 11243.32
1343.496 521.093 11022.202
1348.09 538.444 11103.51
1335.923 549.138 11047.983
1319.8 573.626 11007.329
1342.761 599.64 11248.278
1326.446 608.336 11162.012
1309.037 616.269 11066.822
1282.148 619.348 10891.316
1285.299 636.8 10971.632
1277.48 648.916 10959.734
1260.809 656.391 10872.476
1252.466 668.051 10857.603
1261.709 705.748 11057.898
1234.901 707.057 10884.375
1241.862 727.628 11009.312
1213.509 727.413 10821.907
1196.007 733.278 10730.683
1215.744 762.21 10975.599
1189.289 762.297 10805.05
1179.438 772.731 10785.219
1151.832 771.215 10602.771
1130.228 789.937 10547.244
1153.818 823.721 10843.721
1103.834 804.822 10449.079
1099.474 818.607 10484.775
1116.827 849.016 10730.683
1085.546 842.497 10510.556
1070.97 848.48 10451.062
1062.129 858.903 10448.088
1030.692 850.667 10222.012
1025.271 881.25 10340.999
1016.31 891.373 10340.007
1016.31 891.373 10340.007
1033.529 888.348 10424.29
1051.78 885.902 10518.489
1044.289 861.89 10356.864
1057.997 855.561 10407.434
1074.933 851.62 10489.733
1072.13 832.085 10380.661
1097.914 817.445 10469.902
1116.299 813.91 10567.075
1133.35 809.109 10651.358
1124.809 786.15 10496.674
1141.708 781.085 10580.957
1132.55 758.305 10425.282
1149.51 753.123 10511.548
1167.243 748.166 10604.754
1175.984 737.283 10616.653
1186.713 711.351 10582.94
1218.486 713.932 10802.075
1216.564 696.558 10722.75
1238.629 692.838 10855.62
1227.521 670.598 10698.953
1234.508 658.472 10701.928
1257.129 654.475 10840.746
1254.48 637.233 10762.413
1266.83 627.649 10813.974
1299.771 611.907 10988.489
1282.848 588.341 10795.134
1314.353 586.954 11010.303
1295.903 563.24 10808.025
1332.753 563.479 11067.814
1318.178 541.844 10901.231
1334.967 533.203 10995.43
1329.718 515.749 10909.164
1326.437 499.275 10840.746
1357.544 480.213 11014.27
1342.288 459.767 10852.645
1347.188 446.444 10855.62
1385.535 443.825 11128.299
1358.2 420.14 10874.459
1406.183 419.623 11224.481
1378.54 396.405 10971.632
1648.802 456.319 13085.642
1660.047 441.608 13139.187
1668.799 408.383 13141.17
1662.701 389.311 13061.845
1662.21 371.702 13028.132
1676.874 357.413 13114.398
1678.205 340.189 13097.541
1680.886 323.268 13092.583
1675.362 304.865 13025.157
1679.221 288.25 13032.098
1683.939 271.753 13046.971
1701.489 239.777 13143.153
1697.631 221.944 13095.558
1696.806 204.6 13072.752
1698.896 187.636 13073.744
1690.884 169.654 12998.385
1694.175 152.889 13011.275
1696.265 135.991 13016.233
1710.084 119.902 13112.414
1706.021 102.484 13072.752
1702.419 68.133 13032.098
1732.558 51.992 13258.174
1693.979 33.884 12959.714
1727.937 17.28 13217.52
1848.296 18.484 13116.401
1836.718 36.739 13036.194
1830.261 54.924 12993.614
1827.25 73.129 12976.781
1838.552 92.004 13062.929
1824.307 109.59 12968.859
1834.256 128.608 13048.076
1827.871 146.542 13012.428
1829.094 165.064 13032.233
1842.21 203.464 13152.049
1816.116 218.986 12980.741
1819.231 237.841 13019.36
1796.312 253.14 12872.808
1799.072 271.903 12911.426
1807.697 291.725 12993.614
1790.523 307.356 12891.622
1800.54 327.643 12986.683
1788.404 343.946 12923.309
1786.217 380.719 12959.947
1775.376 397.008 12909.446
1782.458 417.351 12990.644
1770.876 433.363 12937.172
1782.949 455.262 13057.978
1766.845 470.019 12973.81
1760.039 487.105 12958.957
1743.413 501.326 12872.808
1736.708 518.256 12860.925
1724.003 552.245 12846.072
1718.527 569.501 12847.062
1472.877 504.497 11047.84
1468.021 519.293 11049.82
1478.092 539.546 11165.676
1477.716 556.216 11204.294
1692.859 656.598 12884.691
1447.766 578.256 11062.693
1439.975 591.909 11047.84
1651.299 717.706 12776.757
1648.371 736.117 12810.424
1408.304 645.878 10994.368
1406.067 661.949 11028.036
1420.11 685.991 11191.421
1607.863 796.614 12733.187
1382.966 702.5 11007.241
1374.882 715.778 10999.319
1386.863 739.736 11153.793
1370.33 766.506 11141.91
1341.405 768.037 10968.623
1343.289 787.056 11047.84
1334.993 800.234 11044.869
1329.779 815.294 11068.634
1340.831 840.633 11230.04
1302.4 834.797 10977.535
1290.719 845.638 10949.808
1231.063 824.265 10513.123
1242.469 868.385 10756.716
1223.502 873.469 10667.597
1281.795 934.576 11256.775
1200.081 893.513 10617.096
1165.535 886.045 10389.346
1160.585 900.736 10424.994
1178.099 933.354 10665.616
1150.261 930.171 10497.28
1129.386 932.123 10391.327
1100.466 945.882 10297.256
1099.869 964.66 10381.425
1100.079 964.844 10383.405
1113.905 957.434 10423.014
1128.333 950.382 10468.564
1126.157 929.458 10361.62
1140.495 922.274 10408.16
1140.692 903.718 10326.963
1160.365 900.565 10423.014
1169.189 870.512 10343.796
1184.375 863.545 10401.229
1178.868 841.605 10278.442
1187.797 830.174 10283.393
1207.096 825.819 10378.454
1231.063 824.265 10513.123
1245.547 816.043 10566.595
1258.579 806.71 10608.184
1268.475 795.27 10624.027
1295.735 776.702 10720.078
1283.571 752.066 10556.693
1312.583 751.535 10732.951
1325.391 741.369 10776.521
1314.002 717.843 10625.018
1337.737 713.533 10758.697
1334.408 694.707 10675.519
1364.18 692.957 10857.718
1354.411 671.041 10726.02
1398.492 658.383 10968.623
1404.752 644.249 10966.642
1401.441 625.845 10891.386
1414.412 614.747 10943.867
1404.551 593.835 10821.08
1416.098 582.094 10864.65
1428.457 570.544 10915.151
1418.349 550.125 10795.335
1447.287 544.763 10973.574
1503.541 531.858 11317.179
1515.253 519.012 11365.699
1499.042 496.766 11206.274
1505.529 482.262 11218.157
1516.408 469.08 11263.707
1504.175 448.865 11138.94
1510.198 434.264 11150.822
1763.67 488.11 12985.693
1764.822 469.481 12958.957
1779.958 435.585 13003.516
1785.719 418.114 13014.409
1785.589 399.292 12983.712
1796.726 382.959 13036.194
1785.148 361.867 12925.289
1787.719 343.814 12918.358
1782.143 324.296 12853.994
1792.862 307.757 12908.456
1801.222 290.68 12947.074
1809.715 255.028 12968.859
1799.722 235.291 12879.739
1823.181 219.838 13031.243
1818.631 200.86 12983.712
1822.492 182.859 12997.575
1825.342 164.726 13005.497
1816.743 145.65 12933.211
1817.413 127.427 12928.26
1814.557 109.004 12899.544
1828.644 73.185 12986.683
1855.367 55.678 13171.853
1838.81 36.781 13051.047
1844.807 18.449 13091.646
1983.543 19.836 13124.947
1976.522 39.536 13080.453
1969.007 59.088 13033.98
1952.042 78.123 12926.204
1984.894 99.327 13149.667
1948.896 117.074 12918.294
1952.696 136.912 12951.912
1958.677 157.029 13001.351
1960.879 176.957 13027.059
1942.094 214.496 12928.182
1959.436 236.268 13058.7
1961.125 256.392 13086.385
1950.324 274.843 13032.003
1948.956 294.556 13041.891
1930.717 311.578 12940.047
1928.241 330.996 12944.991
1933.51 351.84 13003.328
1922.997 369.831 12956.856
1920.624 409.367 12993.441
1904.33 425.845 12911.373
1902.596 445.48 12929.171
1897.32 464.306 12924.227
1897.36 484.476 12956.856
1898.92 505.154 13001.351
1879.947 520.291 12906.429
1880.251 540.674 12944.991
1606.97 479.54 11095.989
1601.897 513.132 11129.607
1602.927 531.193 11173.113
1608.562 550.973 11250.237
1584.798 560.602 11122.686
1577.148 575.704 11108.843
1588.655 597.974 11231.451
1569.638 608.805 11139.495
1550.982 619.482 11050.506
1519.278 624.507 10868.572
1541.433 669.955 11120.708
1516.372 677.17 10988.213
1485.482 681.273 10813.201
1482.922 698.131 10844.841
1474.521 712.275 10834.953
1467.325 726.984 10834.953
1469.574 746.494 10906.145
1456.336 758.184 10863.628
1424.025 759.558 10678.728
1440.243 805.612 10918.999
1414.737 810.024 10786.504
1401.022 820.882 10743.987
1412.225 846.53 10894.28
1387.0 850.377 10764.751
1370.704 859.362 10704.436
1367.326 876.413 10745.964
1334.119 874.073 10553.154
1335.618 894.271 10635.222
1304.973 912.07 10534.367
1310.625 935.667 10654.997
1289.974 940.539 10563.041
1280.744 953.57 10565.019
1279.234 972.479 10632.255
1257.994 976.335 10536.345
1241.96 983.948 10483.94
1221.716 987.955 10395.939
1209.471 998.22 10376.164
1237.77 1063.899 10799.358
1197.185 1050.013 10536.345
1292.147 1133.301 10650.208
1267.048 1089.064 10353.053
1258.257 1059.815 10194.109
1280.711 1057.017 10289.87
1275.608 1031.535 10165.479
1312.833 1040.097 10378.72
1325.559 1028.773 10397.478
1346.507 1002.533 10402.414
1352.474 986.109 10371.81
1384.7 988.549 10542.6
1351.292 944.444 10215.828
1372.108 938.71 10301.717
1399.828 937.263 10438.941
1392.339 912.217 10314.551
1437.473 921.375 10580.115
1453.229 911.101 10628.489
1473.482 883.249 10645.272
1483.615 869.275 10655.144
1492.234 854.396 10655.144
1500.564 839.353 10654.157
1505.946 822.702 10633.425
1526.327 814.125 10719.314
1553.328 808.68 10851.602
1538.895 781.706 10695.62
1545.492 765.712 10687.723
1571.019 739.605 10759.79
1590.791 729.57 10844.692
1580.695 705.895 10727.212
1587.237 689.863 10724.25
1634.997 691.266 10999.686
1641.238 674.639 10995.737
1624.082 648.679 10836.794
1636.726 634.826 10878.257
1632.704 614.555 10810.139
1644.668 581.78 10810.139
1665.174 570.364 10906.887
1709.963 566.664 11162.579
1698.248 543.995 11050.035
1684.729 521.148 10927.619
1710.008 510.288 11057.933
2019.569 580.736 13021.528
1702.214 471.102 10944.402
2028.161 539.535 13004.745
2045.664 500.608 13050.157
2045.294 478.892 13016.592
2051.846 458.833 13028.438
2056.955 438.424 13032.387
2071.698 419.954 13098.532
2061.244 396.418 13006.719
2074.666 377.526 13066.94
2058.553 353.365 12942.55
2070.005 334.056 12992.898
2078.796 292.948 13008.694
2075.461 271.34 12970.192
2080.443 250.858 12985.0
2089.498 230.776 13026.464
2079.654 208.661 12951.435
2090.522 188.657 13006.719
2100.403 168.392 13057.068
2082.752 146.031 12937.614
2091.105 125.617 12981.052
2094.155 83.811 12986.975
2089.633 62.708 12954.396
2111.34 42.232 13085.698
2097.319 20.974 12996.847
2114.047 21.141 13100.506
2105.447 42.115 13049.17
2105.08 63.171 13050.157
2102.273 84.136 13037.324
2094.485 104.812 12994.873
2112.257 126.888 13112.353
2096.261 146.978 13021.528
2093.733 167.857 13015.605
2082.747 187.955 12958.345
2090.607 230.899 13033.375
2089.3 251.926 13040.285
2091.732 273.467 13071.876
2120.918 298.884 13272.284
2090.413 315.935 13100.506
2105.709 339.818 13216.999
2074.412 356.087 13042.26
2083.287 379.095 13121.238
2071.57 398.404 13071.876
2055.241 438.059 13021.528
2063.818 461.51 13104.455
1999.998 468.286 12728.321
2006.512 491.027 12800.389
1994.092 509.175 12753.002
1982.896 527.493 12714.5
2031.878 562.339 13063.979
2014.21 579.195 12986.975
1985.723 592.565 12840.865
1959.516 627.687 12750.04
1971.894 653.465 12872.457
1975.962 676.816 12942.55
1703.395 602.554 11196.145
1701.625 621.142 11224.774
1675.945 630.83 11096.435
1699.706 659.253 11296.842
1641.984 655.829 10956.248
1904.267 782.758 12757.938
1625.665 706.565 10983.891
1630.447 728.113 11064.843
1628.008 746.639 11098.409
1625.073 765.053 11130.0
1598.405 772.118 10999.686
1595.743 790.609 11035.227
1586.195 805.733 11024.367
1817.869 946.402 12699.692
1544.039 823.572 10843.704
1783.658 997.704 12664.152
1515.738 867.854 10822.973
1518.668 889.813 10906.887
1495.346 896.355 10803.228
1497.581 918.175 10885.168
1468.617 920.749 10741.033
1470.737 942.696 10824.947
1441.114 944.172 10675.876
1442.191 965.627 10754.854
1421.024 993.181 10743.007
1387.423 990.493 10563.332
1421.218 1036.231 10898.989
1377.304 1025.463 10640.336
1393.108 1059.047 10843.704
1375.526 1067.552 10789.407
1357.788 1075.713 10734.122
1309.056 1058.583 10432.031
1344.114 1109.345 10799.279
1294.958 1113.053 10581.102
1299.334 1139.604 10709.442
1362.865 1195.325 10560.541
1385.912 1191.231 10646.287
1387.403 1168.594 10567.44
1389.625 1146.908 10496.478
1384.317 1119.444 10371.309
1413.875 1120.148 10508.305
1449.598 1125.04 10689.652
1449.009 1078.851 10524.074
1455.214 1061.018 10491.55
1441.93 1029.407 10321.044
1490.564 1041.783 10594.051
1488.619 1018.419 10507.319
1536.404 1028.708 10771.456
1505.009 986.034 10481.694
1522.058 975.591 10531.959
1558.112 976.858 10713.306
1566.163 938.805 10637.416
1576.787 923.866 10646.287
1592.7 911.919 10691.624
1603.216 896.773 10701.479
1600.523 874.369 10624.604
1628.741 868.751 10753.715
1651.753 859.921 10848.332
1635.683 830.871 10687.681
1656.796 820.857 10771.456
1716.352 808.025 11051.362
1677.597 769.381 10751.744
1680.417 750.428 10721.191
1715.301 745.523 10895.64
1703.815 720.362 10776.384
1725.173 709.141 10866.072
1759.673 702.836 11038.549
1815.037 703.986 11341.124
1742.343 655.823 10845.375
1782.862 630.664 11016.867
1784.118 611.105 10986.313
1769.584 586.421 10860.159
1791.632 573.909 10959.703
1818.617 562.564 11089.8
1811.02 540.431 11009.967
2155.504 619.824 13065.897
2149.691 594.944 12993.95
2163.217 575.462 13040.272
2153.916 527.099 12918.06
2167.151 507.424 12966.353
2189.287 489.567 13068.854
2187.62 466.275 13030.416
2177.416 441.384 12942.699
2192.52 421.665 13006.762
2183.644 397.357 12929.887
2188.676 375.701 12936.786
2201.008 355.198 12988.036
2224.759 313.517 13088.566
2213.86 289.434 13006.762
2203.206 265.661 12927.915
2205.752 243.616 12927.915
2218.684 222.611 12990.007
2223.158 200.626 13003.805
2203.804 176.681 12879.622
2221.493 155.759 12973.252
2222.94 133.537 12973.252
2232.604 89.352 13016.618
2228.482 66.875 12988.036
2229.377 44.593 12990.007
2245.614 22.457 13082.652
2246.122 22.462 13085.609
2238.004 44.766 13040.272
2259.09 67.793 13166.427
2241.225 89.697 13066.883
2210.14 110.599 12891.449
2222.433 133.506 12970.296
2212.38 155.12 12920.031
2224.378 178.331 12999.863
2208.161 199.273 12916.088
2207.434 243.802 12937.771
2206.397 266.046 12946.641
2200.775 287.723 12929.887
2210.52 311.511 13004.791
2207.629 333.65 13006.762
2193.659 354.012 12944.67
2188.843 375.73 12937.771
2198.292 400.022 13016.618
2193.351 421.825 13011.69
2175.707 463.735 12959.454
2184.004 488.386 13037.315
2162.374 506.305 12937.771
2163.611 529.472 12976.209
2164.766 552.755 13015.632
2158.312 574.158 13010.705
2150.18 595.08 12996.906
2129.814 612.437 12910.175
2121.313 633.027 12896.377
1808.067 579.173 11060.232
2099.444 695.733 12884.55
1814.849 621.631 11175.546
1781.427 630.156 11007.996
2073.021 756.712 12855.968
1766.093 664.763 10993.212
1778.601 689.854 11113.454
1743.019 696.184 10934.077
1761.007 723.87 11091.771
1740.127 756.313 11053.333
1725.062 770.365 11006.025
1708.968 783.769 10952.804
1693.698 797.36 10905.495
1683.811 813.374 10893.668
1661.95 823.411 10804.966
1665.247 845.889 10880.856
1669.461 869.139 10964.631
1651.729 881.013 10905.495
1599.968 894.956 10679.797
1628.377 932.347 10931.121
1586.129 929.34 10709.364
1595.33 956.288 10835.519
1589.294 974.404 10860.159
1565.566 981.531 10764.557
1555.958 997.32 10766.528
1585.389 1038.697 11041.506
1579.422 1057.511 11073.045
1502.905 1050.409 10681.768
1467.954 1047.986 10507.319
1449.746 1057.031 10452.126
1457.016 1084.812 10582.224
1391.009 1057.451 10179.119
1414.18 1097.552 10428.472
1407.908 1115.421 10463.953
1400.893 1132.848 10495.492
1387.929 1145.508 10483.665
1408.75 1210.861 10821.721
1329.795 1166.321 10304.289
1401.543 1229.248 10244.764
1436.574 1234.776 10410.05
1456.518 1226.808 10465.145
1469.817 1213.093 10473.016
1476.028 1193.607 10431.695
1489.995 1180.455 10446.452
1508.938 1171.094 10496.628
1507.214 1122.187 10326.423
1521.253 1109.168 10346.1
1506.77 1075.696 10173.928
1569.838 1097.189 10525.16
1569.501 1073.754 10450.388
1592.954 1066.571 10534.998
1618.365 1060.302 10632.399
1615.774 1035.66 10546.804
1628.173 1020.782 10560.578
1656.554 992.987 10613.706
1667.791 977.187 10622.56
1691.462 968.467 10711.106
1694.656 947.92 10670.769
1692.895 924.833 10600.916
1702.059 907.858 10600.916
1712.799 891.702 10611.738
1730.09 878.827 10663.882
1731.412 857.826 10618.625
1759.559 828.366 10687.494
1802.58 826.701 10898.037
1784.601 796.954 10740.622
1835.335 797.694 10997.405
1816.177 767.867 10836.054
1838.999 755.93 10926.568
1854.447 740.69 10973.793
1819.364 705.664 10723.896
1857.998 699.356 10909.843
1900.642 672.327 11079.064
1901.512 651.315 11045.613
1900.962 629.959 11005.276
1880.569 602.398 10851.796
1886.67 583.616 10852.78
1916.601 571.938 10991.502
2315.72 665.895 13241.552
2295.001 635.16 13086.105
2295.528 610.66 13053.638
2315.977 566.758 13102.83
2299.216 538.346 12976.898
2315.142 517.711 13036.913
2320.904 494.683 13040.848
2305.205 467.288 12925.738
2332.618 448.609 13053.638
2324.482 422.985 12983.785
2322.949 398.75 12952.302
2358.103 380.549 13126.443
2337.764 329.442 12973.947
2332.421 304.934 12926.722
2332.332 281.231 12909.997
2381.116 262.984 13164.812
2323.951 233.173 12835.225
2334.904 210.711 12883.433
2346.531 188.124 12936.561
2349.902 164.762 12945.415
2351.432 141.255 12945.415
2353.787 94.202 12945.415
2351.032 70.552 12925.738
2350.367 47.014 12918.852
2376.32 23.764 13059.541
2360.208 23.603 12970.995
2392.073 47.848 13148.087
2368.032 71.062 13019.204
2363.447 94.588 12998.543
2370.429 118.62 13042.816
2383.421 143.177 13121.523
2355.974 165.188 12978.866
2353.312 188.668 12973.947
2340.966 211.258 12916.884
2334.85 257.874 12909.013
2339.086 282.045 12947.383
2336.681 305.491 12950.335
2313.3 325.995 12838.176
2318.775 350.449 12887.369
2327.35 375.587 12955.254
2330.36 400.022 12993.624
2332.936 424.523 13031.01
2320.136 446.208 12983.785
2316.701 493.787 13017.236
2296.797 513.608 12933.609
2310.546 540.999 13040.848
2288.501 560.034 12947.383
2274.807 580.853 12902.126
2260.407 601.317 12853.918
2260.32 625.562 12888.352
2253.779 648.084 12887.369
2259.366 674.224 12957.221
2257.536 723.151 13027.074
2213.484 733.525 12814.564
2226.193 762.527 12931.641
2203.098 779.317 12842.112
2193.177 800.572 12830.306
1860.343 700.239 10923.617
1901.486 737.516 11207.947
1850.124 738.963 10948.213
1841.317 756.882 10940.342
1860.128 808.47 11145.965
1808.304 807.539 10883.279
1819.992 834.687 11003.308
1817.385 855.59 11038.726
1773.112 856.511 10821.297
1791.249 887.472 10985.599
1800.64 914.664 11098.741
1730.108 900.713 10718.977
1698.583 906.004 10579.271
1731.374 968.459 10901.972
1680.276 962.062 10640.27
1696.367 993.931 10804.571
1658.396 994.092 10625.512
1666.993 1022.042 10745.541
1654.414 1037.234 10730.783
1636.875 1049.186 10684.543
1617.317 1059.615 10625.512
1598.607 1070.356 10572.384
1600.066 1118.317 10727.832
1556.893 1111.48 10512.37
1556.695 1135.009 10587.142
1539.38 1146.136 10546.804
1518.863 1154.646 10484.822
1494.087 1159.569 10393.325
1486.908 1178.009 10424.808
1486.19 1201.825 10503.515
1441.926 1190.074 10274.28
1423.676 1223.69 10316.585
1433.442 1257.226 10477.935
1475.51 1294.123 10204.988
1501.124 1290.259 10292.386
1528.107 1287.107 10388.623
1510.751 1246.877 10185.348
1549.137 1252.727 10359.163
1575.057 1247.846 10448.525
1570.299 1218.717 10335.595
1594.509 1187.182 10336.577
1602.486 1168.396 10312.026
1621.16 1157.361 10357.199
1640.547 1146.609 10407.281
1659.257 1135.159 10453.435
1665.504 1115.147 10422.011
1691.105 1107.959 10512.355
1689.38 1082.84 10433.795
1728.446 1083.648 10607.61
1745.074 1046.049 10579.132
1777.934 1041.722 10714.648
1781.543 1020.043 10674.386
1784.896 998.397 10634.124
1783.52 974.342 10567.348
1785.009 952.103 10519.229
1832.467 954.002 10742.144
1814.469 921.689 10582.078
1840.349 911.799 10679.296
1860.779 876.018 10694.026
1862.407 854.139 10653.764
1902.068 849.411 10831.507
1881.195 817.626 10665.548
1920.762 812.085 10843.291
1929.311 793.053 10846.237
1908.732 762.372 10687.152
1961.512 760.798 10939.527
1963.72 739.15 10910.067
1955.853 691.857 10787.317
1972.143 675.508 10839.363
1972.166 653.555 10803.029
1988.855 637.085 10859.003
2376.542 735.151 12934.96
2009.523 599.667 10904.175
2393.492 688.259 12949.69
2410.083 667.01 13002.718
2404.039 639.526 12934.96
2400.389 587.415 12849.525
2440.897 571.52 13035.124
2414.789 539.994 12866.219
2437.985 519.638 12961.474
2430.473 492.681 12894.698
2443.995 470.029 12940.852
2434.08 442.928 12864.255
2488.458 427.161 13128.415
2445.061 394.583 12878.004
2438.812 343.682 12806.317
2483.138 324.639 13021.376
2465.447 297.282 12912.374
2476.369 273.505 12954.6
2465.262 247.351 12882.914
2477.205 223.552 12932.996
2472.539 198.226 12897.644
2557.292 179.303 13329.725
2510.697 150.823 13078.332
2481.697 99.321 12914.338
2484.265 74.55 12923.176
2534.546 50.698 13181.443
2494.512 24.946 12971.294
2511.509 25.116 13059.674
2567.401 51.355 13352.312
2493.137 74.817 12969.33
2491.132 99.698 12963.438
2471.337 123.67 12866.219
2486.001 149.339 12949.69
2473.833 173.452 12894.698
2489.294 199.569 12985.042
2467.236 222.653 12880.95
2460.976 271.804 12874.076
2449.885 295.405 12830.867
2477.707 323.929 12992.898
2463.497 347.161 12935.942
2452.059 370.593 12894.698
2462.215 397.351 12968.348
2455.884 421.569 12956.564
2435.009 443.097 12869.166
2444.737 470.171 12944.78
2442.049 520.504 12983.078
2451.098 548.113 13059.674
2419.198 566.439 12919.248
2404.791 588.493 12873.094
2405.191 614.146 12907.464
2390.351 635.885 12861.309
2397.706 663.585 12935.942
2383.327 685.336 12894.698
2381.241 710.593 12921.212
2356.482 754.846 12866.219
2334.116 773.501 12785.695
2331.267 798.517 12813.191
2330.643 824.434 12854.435
2303.832 840.964 12752.307
1974.678 743.275 10970.951
1996.2 774.252 11132.982
1941.529 775.472 10870.787
1976.823 812.583 11113.342
1916.009 832.758 10862.931
1905.517 850.952 10851.147
1911.847 876.813 10936.581
1879.404 884.787 10801.065
1868.421 902.55 10789.281
1873.348 928.148 10870.787
1848.819 939.137 10782.407
1894.616 986.358 11106.468
1811.338 966.146 10674.386
1797.588 1005.496 10709.738
1827.761 1046.506 10951.311
1796.185 1052.415 10824.633
1777.795 1065.663 10777.496
1750.627 1073.319 10677.332
1716.445 1076.124 10533.959
1774.286 1137.262 10958.185
1718.435 1125.864 10682.242
1699.087 1137.633 10632.16
1640.857 1146.826 10409.245
1635.301 1167.456 10447.543
1642.163 1197.325 10567.348
1616.171 1203.31 10477.003
1589.023 1207.982 10378.803
1588.501 1232.844 10455.399
1574.613 1247.494 10445.579
1561.472 1262.702 10441.651
1521.384 1255.653 10257.034
1476.92 1269.455 10126.428
1506.463 1321.27 10419.065
1571.723 1378.508 10313.241
1552.886 1334.75 10101.546
1594.115 1342.704 10281.878
1615.276 1333.146 10331.862
1636.096 1323.048 10379.885
1623.862 1286.511 10220.134
1678.708 1302.853 10482.792
1684.508 1254.19 10360.284
1678.344 1223.705 10246.596
1726.555 1232.603 10465.151
1717.788 1200.594 10338.722
1738.562 1189.414 10391.646
1772.49 1186.781 10522.975
1771.639 1160.722 10448.49
1812.93 1162.031 10622.942
1796.686 1126.432 10461.231
1842.88 1104.677 10599.42
1855.035 1086.896 10606.281
1881.328 1077.176 10694.486
1893.566 1059.182 10703.307
1890.638 1032.86 10627.842
1923.66 1026.057 10755.251
1920.784 999.981 10682.726
1924.665 977.664 10649.403
1918.68 950.607 10563.158
1949.53 917.801 10629.802
2005.2 919.627 10882.659
1985.635 886.73 10727.809
1978.369 859.861 10641.563
1988.332 840.653 10649.403
2004.908 824.127 10693.506
2087.032 833.587 11086.513
2023.767 784.945 10708.207
2049.922 771.597 10805.234
2049.21 724.881 10722.908
2098.645 718.838 10943.423
2113.272 700.316 10982.626
2139.846 685.452 11084.553
2508.345 775.922 12952.56
2534.064 756.197 13045.666
2526.988 726.646 12971.181
2536.234 701.924 12981.962
2537.943 675.147 12955.5
2550.937 624.257 12955.5
2574.462 602.793 13043.706
2575.708 575.978 13020.184
2572.595 548.329 12976.081
2573.276 521.629 12952.56
2587.338 497.596 12997.643
2569.121 467.502 12881.995
2584.828 443.703 12937.859
2572.072 415.08 12852.593
2601.499 366.608 12960.4
2588.093 338.36 12876.115
2626.851 316.744 13052.527
2596.515 286.774 12886.895
2592.927 260.16 12855.533
2606.281 235.201 12909.437
2626.92 210.603 13000.583
2621.76 183.824 12965.301
2632.59 158.145 13010.384
2611.603 104.52 12893.756
2623.042 78.715 12945.699
2631.842 52.644 12985.882
2615.351 26.154 12902.576
2780.091 27.802 13043.998
2752.579 55.059 12916.854
2753.35 82.625 12923.701
2748.845 110.012 12907.074
2766.762 138.453 12997.053
2734.858 164.289 12854.26
2740.149 192.124 12887.513
2746.61 220.199 12927.613
2717.073 245.199 12799.491
2716.185 299.991 12821.007
2720.293 328.011 12855.238
2708.815 354.143 12817.095
2720.62 383.395 12890.447
2706.756 409.086 12843.502
2725.991 439.919 12954.997
2702.348 463.877 12864.041
2705.983 492.407 12904.14
2699.082 519.087 12895.338
2687.957 572.918 12894.36
2680.669 599.45 12887.513
2688.546 629.505 12954.997
2680.497 655.962 12947.173
2654.817 677.886 12855.238
2638.84 701.988 12811.227
2647.962 732.845 12890.447
2647.714 761.361 12925.657
2619.593 781.72 12825.897
2584.774 827.974 12733.963
2574.782 853.256 12726.138
2583.87 885.04 12814.161
2555.435 903.951 12717.336
2534.714 925.243 12659.632
2221.764 836.278 11137.816
2170.727 841.945 10923.627
2160.651 862.991 10915.803
2190.088 900.247 11109.453
2123.277 922.843 10862.011
2128.219 950.404 10935.364
2118.04 971.378 10932.43
2106.523 991.71 10923.627
2078.669 1004.111 10830.714
2075.435 1028.272 10866.901
2079.36 1056.244 10942.21
2051.682 1068.128 10852.231
2062.051 1099.873 10964.705
2028.908 1134.888 10907.001
2032.835 1163.924 10990.133
1997.533 1170.388 10862.011
1976.253 1184.624 10810.176
1939.072 1188.855 10671.295
1963.294 1230.886 10871.792
1912.978 1226.159 10660.537
1874.64 1228.205 10514.81
1875.429 1255.704 10589.141
1826.192 1276.36 10453.194
1826.91 1304.247 10531.437
1783.12 1300.099 10353.435
1813.169 1349.984 10605.767
1782.983 1355.432 10507.964
1767.364 1371.66 10496.228
1687.711 1337.096 10102.081
1674.256 1353.906 10102.081
1686.036 1391.546 10256.61
1657.079 1424.307 10251.72
1641.97 1440.119 10246.83
1683.031 1476.132 10503.074
1663.56 1429.878 10291.819
1686.226 1420.289 10343.655
1701.952 1404.683 10353.435
1730.826 1399.652 10443.414
1696.698 1344.216 10155.873
1768.187 1372.299 10501.118
1774.043 1320.853 10376.908
1782.783 1299.853 10351.479
1795.353 1281.719 10349.523
1833.197 1281.256 10493.294
1815.465 1242.026 10320.182
1829.873 1225.202 10331.919
1873.943 1227.748 10510.898
1886.477 1209.173 10512.854
1915.607 1200.989 10607.723
1918.501 1150.006 10494.272
1953.827 1144.78 10624.35
1959.026 1121.663 10591.097
1964.322 1098.761 10559.8
2007.592 1096.753 10732.911
1986.823 1059.748 10564.69
1999.725 1041.078 10577.404
2011.336 1021.69 10584.251
2013.794 997.732 10544.151
2094.641 986.116 10862.011
2079.575 953.737 10733.889
2065.406 922.353 10612.613
2092.688 909.548 10705.526
2120.111 896.369 10799.417
2105.254 865.375 10679.12
2114.77 844.666 10684.01
2131.662 826.793 10727.043
2159.138 812.706 10823.868
2149.804 760.465 10698.68
2168.148 742.644 10752.472
2226.32 737.779 11003.826
2621.898 839.866 12916.854
2666.411 824.817 13094.856
2252.442 672.158 11028.277
2651.72 762.514 12945.217
2679.103 741.463 13042.042
2670.67 710.456 12965.756
2685.559 657.201 12971.624
2701.333 632.499 13016.613
2745.362 613.916 13198.527
2752.995 586.78 13206.351
2726.853 552.761 13053.779
2705.837 520.386 12927.613
2705.163 492.257 12900.228
2712.416 465.605 12911.964
2779.293 448.521 13208.308
2738.578 385.926 12975.536
2723.698 356.089 12887.513
2748.232 331.38 12987.273
2714.734 299.831 12814.161
2711.996 272.107 12787.754
2752.368 248.384 12965.756
2728.117 218.716 12840.568
2752.418 192.985 12945.217
2734.858 164.289 12854.26
2775.715 111.088 13033.24
2788.147 83.67 13087.032
2832.612 56.66 13292.418
2745.28 27.454 12880.667
2874.377 28.745 12854.521
2948.347 58.975 13187.302
2910.528 87.342 13021.4
2886.613 115.526 12918.93
2905.583 145.4 13009.689
2883.072 173.192 12916.003
2848.977 199.755 12771.57
2874.463 230.449 12895.509
2873.537 259.319 12902.34
2864.088 316.327 12885.75
2847.782 343.384 12827.196
2844.206 371.844 12827.196
2866.061 403.891 12943.328
2840.301 429.269 12845.738
2835.435 457.581 12843.786
2828.567 485.543 12834.027
2852.34 519.039 12964.798
2835.007 545.228 12910.147
2812.01 599.359 12857.449
2804.385 627.115 12850.618
2786.075 652.341 12795.967
2787.68 682.192 12834.027
2779.238 709.656 12827.196
2763.145 735.056 12786.208
2762.387 764.513 12817.437
2745.376 789.445 12774.498
2744.454 818.98 12807.678
2714.434 869.508 12746.197
2715.753 899.972 12794.016
2702.902 925.811 12776.449
2675.198 946.316 12689.595
2680.566 978.483 12760.835
2308.325 868.86 11029.593
2263.102 877.774 10854.907
2252.59 899.713 10847.1
2267.096 931.901 10961.28
2240.2 973.661 10923.22
2244.898 1002.51 10994.461
2224.644 1020.268 10944.69
2179.778 1026.197 10773.908
2209.101 1067.117 10971.039
2531.724 1254.339 12634.944
2193.349 1114.147 11001.292
2140.288 1114.257 10790.498
2479.481 1322.526 12566.631
2100.95 1175.185 10765.125
2072.427 1186.593 10679.246
2075.521 1216.083 10757.318
2417.771 1449.284 12605.667
2054.507 1259.629 10776.836
2048.095 1284.052 10810.016
1987.383 1273.85 10556.283
1963.045 1286.125 10494.801
1949.542 1305.327 10491.873
1913.209 1337.178 10438.199
1883.757 1344.831 10350.368
1891.022 1378.772 10465.524
1876.44 1397.092 10461.621
1830.236 1391.353 10281.08
1799.163 1396.34 10184.466
1813.163 1436.486 10344.513
1791.072 1448.37 10300.598
1751.421 1445.511 10155.189
1785.382 1534.587 10527.982
1691.687 1483.725 10062.479
1747.306 1532.506 10393.308
1741.525 1496.891 10269.369
1758.076 1480.807 10279.128
1802.923 1488.018 10453.813
1796.332 1452.624 10330.85
1804.61 1429.71 10295.718
1820.886 1413.198 10307.429
1849.659 1377.152 10312.308
1865.806 1360.387 10325.971
1895.302 1353.073 10413.802
1902.298 1329.552 10378.669
1909.194 1306.15 10344.513
1954.438 1308.605 10518.223
1945.704 1274.764 10402.091
1982.973 1271.024 10532.861
1997.803 1252.522 10544.572
2008.227 1203.791 10470.404
2013.386 1179.677 10435.271
2034.172 1164.689 10482.115
2061.906 1153.345 10565.066
2060.505 1125.659 10499.681
2096.305 1118.144 10624.596
2093.444 1089.87 10554.331
2113.966 1073.823 10603.126
2107.586 1044.201 10518.223
2133.181 1004.26 10543.596
2176.838 998.344 10709.499
2154.432 962.11 10551.403
2165.346 941.127 10558.235
2185.101 923.846 10608.981
2237.627 919.787 10818.799
2196.452 877.291 10576.777
2232.379 865.858 10707.547
2216.621 834.343 10591.415
2277.509 805.639 10803.185
2296.393 786.572 10854.907
2269.757 752.173 10692.908
2279.867 730.304 10705.595
2342.095 724.495 10963.232
2313.673 690.43 10797.329
2349.194 675.521 10931.027
2322.601 642.799 10776.836
2825.781 751.719 13076.05
6843.18 1674.64 31504.897
2849.608 667.217 13087.761
2867.424 641.212 13139.483
2829.512 603.089 12937.472
2874.541 582.698 13116.062
2907.655 559.2 13240.977
2852.34 519.039 12964.798
2859.754 490.896 12975.532
2856.333 460.954 12938.448
2866.925 404.013 12947.231
2852.862 372.975 12866.232
2887.648 348.191 13006.761
2880.574 318.147 12959.918
2887.737 289.74 12978.46
2901.14 261.81 13026.279
2894.911 232.088 12987.243
2889.903 202.624 12955.039
2930.996 176.071 13130.7
2906.674 116.329 13008.713
2909.873 87.322 13018.472
2892.055 57.849 12935.521
2909.947 29.1 13013.592
3042.664 30.428 12995.525
3011.893 60.246 12866.028
3022.305 90.696 12913.737
3015.552 120.686 12889.396
3034.232 151.838 12975.078
3021.866 181.53 12929.316
3016.034 211.468 12912.764
3015.132 241.726 12918.606
3028.23 273.279 12985.789
2992.702 330.531 12859.212
2994.679 361.096 12882.58
2991.37 391.084 12884.527
2995.663 422.154 12920.553
2978.217 450.113 12864.08
2974.918 480.091 12869.922
2974.911 510.664 12891.343
2988.272 543.774 12972.157
2970.148 571.218 12917.632
2967.495 632.499 12958.526
2978.153 665.973 13033.498
2556.919 598.686 11215.663
2931.465 717.379 12889.396
2542.226 649.137 11205.927
2507.848 667.142 11083.245
2526.758 699.301 11197.164
2445.364 703.175 10867.091
2463.77 735.22 10981.01
2419.047 774.887 10848.591
2429.139 804.991 10929.405
2410.831 825.769 10883.643
2384.184 843.374 10800.881
2399.831 876.007 10910.906
2354.679 886.308 10745.382
2380.131 923.165 10903.116
2334.154 932.291 10734.672
2331.462 958.359 10765.829
2276.286 989.345 10600.306
2318.32 1035.298 10843.723
2243.612 1028.967 10541.886
2284.776 1075.628 10785.303
2254.814 1089.199 10694.752
2253.207 1116.348 10739.54
2221.808 1128.603 10643.147
2244.383 1168.45 10806.723
2229.972 1189.44 10794.066
2178.281 1218.441 10659.7
2147.787 1229.741 10570.122
2125.744 1245.509 10522.413
2137.038 1281.004 10641.2
2104.297 1290.155 10541.886
2081.826 1305.2 10494.176
2110.128 1352.526 10704.488
2051.684 1344.199 10475.677
2060.683 1379.742 10591.543
2006.704 1402.523 10456.203
2022.822 1444.111 10614.911
1959.096 1428.406 10354.942
1976.166 1471.342 10522.413
1927.96 1465.644 10343.258
1902.581 1476.603 10285.812
1878.25 1488.051 10234.207
1877.989 1518.657 10315.022
1867.632 1541.424 10342.284
1790.27 1538.789 10082.316
1825.183 1600.81 10368.573
1810.272 1587.731 10283.864
1818.797 1563.308 10242.97
1850.904 1558.995 10335.469
1860.95 1535.91 10305.285
1876.571 1517.51 10307.232
1861.81 1475.027 10144.63
1902.221 1476.323 10283.864
1962.451 1461.131 10449.388
1941.043 1415.243 10259.523
1946.563 1389.669 10214.734
2004.088 1400.695 10442.572
2017.994 1380.584 10442.572
2017.302 1350.696 10368.573
2040.624 1336.952 10419.204
2046.214 1311.559 10380.257
2061.158 1292.242 10389.994
2106.143 1262.485 10487.361
2120.039 1242.167 10494.176
2125.035 1216.714 10458.151
2164.155 1210.539 10590.569
2169.549 1185.23 10558.438
2155.344 1149.635 10432.835
2186.954 1138.552 10530.202
2191.726 1113.322 10499.045
2203.771 1091.856 10503.913
2254.661 1061.451 10643.147
2238.846 1026.782 10519.492
2241.507 1000.996 10484.44
2289.04 994.888 10659.7
2291.315 968.752 10624.648
2283.808 938.771 10545.781
2331.19 931.107 10721.041
2350.162 911.541 10765.829
2334.836 878.839 10654.831
2370.858 838.66 10740.514
2363.166 809.443 10668.463
2419.184 801.692 10884.617
2390.605 765.777 10721.041
2456.513 759.888 10981.983
2399.106 715.924 10692.804
2436.381 700.592 10827.17
2454.031 679.173 10874.88
2528.557 672.651 11174.769
2938.552 719.113 12920.553
2976.894 697.02 13057.84
2965.917 663.237 12979.947
2985.11 636.254 13035.446
7231.637 1465.925 31513.687
2999.7 576.902 13046.156
2999.711 545.856 13021.814
2995.807 514.251 12981.894
3010.703 485.866 13024.735
3005.37 423.522 12962.421
3008.55 393.33 12958.526
3036.325 366.118 13061.735
3020.573 333.61 12978.973
3026.48 303.661 12990.657
3059.791 276.127 13121.128
3034.902 243.311 13003.315
3079.256 215.901 13183.443
3042.802 182.788 13018.893
2997.784 119.975 12813.45
3019.571 90.614 12902.053
3041.068 60.829 12990.657
3032.405 30.325 12951.71
3203.12 32.032 13089.751
3181.964 63.648 13005.244
3151.707 94.58 12884.798
3155.116 126.272 12903.254
3143.487 157.305 12861.486
3149.587 189.202 12893.54
3124.062 219.042 12797.378
3123.375 250.404 12804.177
3128.764 282.351 12837.203
3120.128 344.605 12827.489
3101.187 373.939 12764.352
3108.842 406.442 12811.948
3101.562 437.078 12799.32
3095.391 467.823 12792.521
3098.067 499.964 12823.604
3100.644 532.247 12855.658
3126.504 568.928 12985.817
3085.645 593.431 12840.117
3072.927 654.971 12839.145
3066.456 685.719 12840.117
3055.511 715.428 12823.604
2638.837 645.768 11101.422
2621.653 669.418 11056.74
3049.216 811.157 12893.54
2586.436 715.817 10966.406
3047.919 876.442 12959.591
2530.603 755.164 10791.565
2531.747 810.988 10863.444
2985.387 989.326 12851.773
2952.857 1011.427 12754.639
2476.253 875.942 10733.285
2483.223 906.447 10802.25
2454.903 924.032 10718.715
2511.36 974.064 11007.202
2498.845 998.07 10995.546
2430.918 999.241 10740.084
2382.544 1035.528 10615.753
2379.232 1062.5 10647.807
2358.118 1081.482 10601.183
2335.572 1099.542 10548.73
2332.379 1126.668 10584.67
2319.931 1149.407 10579.813
2306.838 1171.795 10573.014
2348.136 1222.465 10817.791
2297.204 1225.301 10639.065
2278.256 1274.362 10667.234
2281.901 1306.53 10744.941
2251.7 1319.309 10664.32
2260.209 1354.836 10768.253
2192.441 1344.197 10508.906
2169.223 1359.993 10462.281
2164.32 1387.261 10505.02
2138.012 1400.758 10444.797
2155.303 1443.095 10599.24
2124.064 1484.548 10589.527
2058.232 1469.39 10334.065
2033.256 1482.477 10282.584
2035.108 1515.227 10368.062
2007.932 1526.439 10306.867
1990.502 1544.839 10296.183
1956.137 1549.757 10198.077
1956.622 1582.244 10282.584
1921.636 1585.995 10181.565
1880.701 1616.516 10133.969
1916.981 1681.323 10419.542
1902.149 1668.314 10338.921
1895.302 1629.066 10212.647
1927.315 1623.355 10297.154
1930.435 1593.258 10228.189
1922.983 1555.042 10105.8
1955.764 1549.462 10196.135
1997.075 1549.939 10330.179
2004.411 1492.372 10211.676
2054.384 1497.881 10389.431
2062.682 1472.567 10356.405
2053.534 1435.254 10237.902
2102.116 1438.135 10407.886
2100.986 1406.727 10332.122
2116.34 1386.559 10338.921
2165.721 1388.159 10511.82
2164.188 1356.837 10437.998
2201.9 1319.884 10490.45
2208.015 1293.714 10457.425
2239.407 1282.199 10544.845
2215.813 1239.434 10374.861
2243.115 1225.42 10444.797
2244.771 1197.334 10396.23
2258.74 1175.924 10405.944
2263.604 1149.834 10374.861
2305.447 1142.231 10513.762
2299.656 1082.633 10386.517
2332.838 1069.889 10487.536
2335.173 1042.824 10450.625
2347.446 1020.273 10459.367
2387.307 1009.337 10591.469
2406.954 989.39 10634.208
2429.089 970.209 10688.603
2429.362 942.26 10647.807
2480.264 933.578 10829.447
2479.39 877.052 10746.883
2452.731 840.121 10594.383
2461.009 815.552 10594.383
2511.147 804.389 10775.052
2528.603 782.188 10815.848
2539.715 757.883 10830.418
3024.846 869.807 12861.486
2536.494 701.995 10754.654
3048.757 811.035 12891.598
3074.526 752.388 12934.336
3061.76 716.891 12849.83
3112.155 695.938 13031.47
3089.899 658.589 12910.053
3100.29 628.46 12926.566
3115.523 599.177 12964.448
3116.214 567.056 12943.079
3092.21 530.799 12820.69
3139.134 506.592 12993.588
3121.804 439.931 12882.856
3196.992 417.966 13175.228
3102.367 374.081 12769.209
3116.821 344.24 12813.891
3132.879 314.336 12866.343
3137.049 283.099 12871.2
3163.655 253.634 12969.305
3146.589 220.622 12889.655
3160.502 189.858 12938.222
3144.19 125.835 12858.572
3168.813 95.093 12954.735
3169.131 63.391 12952.792
3159.385 31.595 12911.024
3301.441 33.016 12930.136
3289.567 65.8 12885.566
3289.487 98.714 12888.473
3377.576 135.175 13238.25
3270.546 163.664 12824.525
3298.134 198.126 12939.825
3316.226 232.516 13019.276
3257.507 261.158 12798.364
3298.346 297.655 12969.862
3275.504 361.766 12905.913
3260.423 393.14 12861.343
3256.329 425.724 12861.343
3247.744 457.678 12844.872
3233.71 488.727 12808.053
3245.758 523.799 12875.877
3227.434 554.011 12824.525
3222.22 586.346 12826.463
3211.579 617.65 12808.053
3219.636 686.241 12892.349
3188.468 713.003 12795.457
3191.778 747.334 12838.09
3159.153 773.097 12737.323
3172.119 809.975 12821.618
3193.508 849.542 12941.763
3140.264 869.094 12760.577
3131.417 900.452 12760.577
3108.505 927.618 12704.38
2607.037 835.106 10721.016
3066.836 1016.317 12653.027
2597.772 889.802 10753.959
2597.841 918.952 10791.747
2565.281 936.401 10694.855
2585.658 973.249 10819.845
2564.494 994.673 10772.368
2513.293 1003.841 10598.933
2560.336 1052.439 10841.161
2479.783 1077.791 10589.244
2467.3 1101.828 10582.461
2512.828 1152.436 10826.627
2441.414 1149.37 10567.928
2447.62 1182.335 10645.441
2472.918 1225.204 10808.218
2401.869 1220.067 10550.487
2397.229 1248.023 10584.399
2381.791 1270.419 10571.803
2381.171 1331.929 10685.166
2347.98 1344.364 10596.026
2325.667 1362.648 10556.301
2344.179 1405.17 10703.576
2312.082 1417.55 10621.218
2285.634 1432.977 10565.021
2244.321 1438.539 10440.031
2261.072 1481.383 10586.337
2217.776 1484.924 10452.627
2168.371 1515.515 10360.581
2142.436 1529.504 10309.228
2143.027 1562.512 10386.741
2092.567 1558.008 10217.181
2125.531 1615.838 10456.503
2072.718 1608.646 10275.316
2036.942 1613.776 10177.456
2036.862 1647.132 10258.845
2034.409 1679.071 10330.544
1958.396 1683.297 10113.508
1955.973 1715.521 10189.083
2032.476 1782.619 10162.557
2050.59 1762.541 10164.49
2035.08 1714.124 10002.136
2114.376 1745.071 10305.583
2097.738 1696.36 10141.296
2107.342 1669.551 10106.506
2126.776 1650.601 10120.036
2195.446 1634.606 10289.154
2232.247 1627.564 10384.827
2221.001 1585.593 10258.23
2258.871 1578.767 10359.701
2247.174 1537.375 10235.036
2283.157 1528.7 10328.776
2291.448 1501.284 10297.852
2315.436 1484.122 10338.44
2341.706 1468.131 10389.659
2364.203 1417.174 10361.633
2407.314 1410.486 10488.23
2414.159 1382.255 10457.306
2400.264 1342.608 10338.44
2405.899 1314.348 10305.583
2438.202 1300.508 10387.726
2445.613 1273.212 10364.533
2469.224 1254.282 10410.919
2491.088 1234.206 10450.541
2551.092 1201.004 10599.365
2562.74 1175.327 10598.399
2557.464 1142.093 10528.819
2590.448 1125.89 10617.727
2562.271 1083.311 10457.306
2624.573 1078.844 10667.013
2607.297 1041.388 10553.945
2607.754 1011.452 10514.323
2652.143 998.274 10652.517
2650.976 937.748 10570.374
2695.0 923.104 10708.567
2683.353 889.235 10626.424
2685.256 860.161 10599.365
2705.512 836.913 10645.752
2808.836 838.192 11018.779
2745.674 789.53 10739.492
2766.811 765.738 10791.677
3295.061 876.557 12817.23
3355.631 821.179 12986.349
3376.191 790.513 13034.668
3332.746 745.267 12837.524
3329.221 709.598 12795.97
3331.615 675.352 12778.575
3358.146 645.838 12854.919
3359.377 611.304 12835.592
3376.978 579.681 12880.046
3374.738 544.613 12850.088
3376.299 475.794 12817.23
3368.907 440.442 12771.81
3377.993 407.316 12790.171
3393.907 374.843 12835.592
3476.526 348.816 13134.206
3437.85 310.245 12975.718
3421.561 274.31 12903.239
3414.388 239.398 12866.516
3439.707 206.63 12953.491
3412.326 136.566 12837.524
3393.478 101.835 12762.146
3394.327 67.896 12762.146
3395.093 33.952 12763.112
3440.594 34.407 12934.163
3395.869 67.926 12767.944
3417.376 102.552 12852.02
3389.465 135.651 12751.516
3443.142 172.301 12959.29
3427.646 205.906 12908.071
3433.622 240.747 12938.995
3400.036 272.585 12822.062
3414.807 308.165 12888.743
3387.774 374.166 12812.398
3353.235 404.331 12696.432
3383.947 442.408 12828.827
3364.335 474.108 12771.81
3379.761 510.801 12849.121
3352.404 541.009 12765.045
3354.174 575.767 12793.071
3348.755 609.371 12795.003
3337.192 641.808 12774.709
3356.627 715.44 12901.306
3324.969 743.528 12807.566
3305.102 773.868 12760.213
3294.951 806.33 12751.516
3284.731 838.729 12743.785
